ply
format ascii 1.0
element vertex 1146
property float x
property float y
property float z
property uchar red
property uchar green
property uchar blue
end_header
1.783282 3.467492 -14.900309 233 233 233 
1.838509 3.478261 -14.946583 235 235 235 
1.900000 3.500000 -15.039999 234 234 234 
1.950000 3.500000 -15.039999 232 232 232 
2.000000 3.500000 -15.039999 232 232 232 
2.037267 3.478261 -14.946583 231 231 231 
2.086957 3.478261 -14.946583 231 231 231 
2.156740 3.510972 -15.087147 232 232 232 
2.242038 3.566879 -15.327388 232 232 232 
2.315113 3.601286 -15.475241 231 231 231 
2.366560 3.601286 -15.475241 230 230 230 
2.418006 3.601286 -15.475241 223 223 223 
2.469453 3.601286 -15.475241 223 223 223 
2.496815 3.566879 -15.327388 227 227 227 
2.539683 3.555556 -15.278729 229 229 229 
2.590476 3.555556 -15.278729 228 228 228 
2.754967 3.708609 -15.936423 225 225 225 
2.807947 3.708609 -15.936423 226 226 226 
2.870432 3.720930 -15.989368 230 230 230 
2.913907 3.708609 -15.936423 236 236 236 
2.976744 3.720930 -15.989368 237 237 237 
3.019868 3.708609 -15.936423 229 229 229 
3.083056 3.720930 -15.989368 226 226 226 
3.136213 3.720930 -15.989368 227 227 227 
3.287671 3.835616 -16.482191 230 230 230 
3.342466 3.835616 -16.482191 230 230 230 
3.480702 3.929825 -16.887016 228 228 228 
6.062500 4.375000 -18.799999 247 247 247 
6.125000 4.375000 -18.799999 247 247 247 
6.187500 4.375000 -18.799999 248 248 248 
6.250000 4.375000 -18.799999 250 250 250 
6.312500 4.375000 -18.799999 251 251 251 
6.375000 4.375000 -18.799999 251 251 251 
6.437500 4.375000 -18.799999 251 251 251 
6.303030 3.393939 -14.584242 219 219 219 
6.219584 3.323442 -14.281305 229 229 229 
2.499408 1.325444 -5.695621 246 246 246 
2.518343 1.325444 -5.695621 249 249 249 
3.028249 1.581921 -6.797740 250 250 250 
3.546798 1.839080 -7.902791 250 250 250 
3.573071 1.839080 -7.902791 246 246 246 
3.425150 1.676647 -7.204790 251 251 251 
3.368421 1.637427 -7.036257 251 251 251 
3.381924 1.632653 -7.015743 251 251 251 
3.395349 1.627907 -6.995348 248 248 248 
3.413643 1.625544 -6.985196 243 243 243 
3.421965 1.618497 -6.954913 230 230 230 
3.445087 1.618497 -6.954913 212 212 212 
3.488372 1.627907 -6.995348 205 205 205 
7.211940 3.343284 -14.366567 221 221 221 
7.281437 3.353293 -14.409580 235 235 235 
7.307463 3.343284 -14.366567 243 243 243 
7.333333 3.333333 -14.323809 246 246 246 
7.359050 3.323442 -14.281305 250 250 250 
10.937500 4.375000 -18.799999 39 39 39 
11.000000 4.375000 -18.799999 36 36 36 
11.062500 4.375000 -18.799999 36 36 36 
11.125000 4.375000 -18.799999 35 35 35 
11.187500 4.375000 -18.799999 50 50 50 
11.250000 4.375000 -18.799999 52 52 52 
11.312500 4.375000 -18.799999 49 49 49 
11.375000 4.375000 -18.799999 54 54 54 
10.844444 4.148148 -17.825184 57 57 57 
10.783883 4.102564 -17.629303 60 60 60 
10.647482 4.028777 -17.312229 72 72 72 
10.333333 3.888889 -16.711111 66 66 66 
10.246575 3.835616 -16.482191 60 60 60 
-4.562500 4.312500 -18.799999 253 253 253 
-4.500000 4.312500 -18.799999 253 253 253 
-4.437500 4.312500 -18.799999 253 253 253 
-4.375000 4.312500 -18.799999 253 253 253 
-4.312500 4.312500 -18.799999 253 253 253 
-4.250000 4.312500 -18.799999 253 253 253 
-4.187500 4.312500 -18.799999 251 251 251 
-4.125000 4.312500 -18.799999 250 250 250 
-4.062500 4.312500 -18.799999 249 249 249 
-4.000000 4.312500 -18.799999 248 248 248 
-3.937500 4.312500 -18.799999 247 247 247 
-3.875000 4.312500 -18.799999 246 246 246 
-3.812500 4.312500 -18.799999 246 246 246 
-3.750000 4.312500 -18.799999 245 245 245 
-3.687500 4.312500 -18.799999 243 243 243 
-3.625000 4.312500 -18.799999 236 236 236 
-3.562500 4.312500 -18.799999 230 230 230 
-3.500000 4.312500 -18.799999 225 225 225 
-3.437500 4.312500 -18.799999 221 221 221 
-3.375000 4.312500 -18.799999 218 218 218 
-3.312500 4.312500 -18.799999 217 217 217 
-3.250000 4.312500 -18.799999 215 215 215 
-3.187500 4.312500 -18.799999 212 212 212 
-3.125000 4.312500 -18.799999 207 207 207 
-3.062500 4.312500 -18.799999 197 197 197 
-3.000000 4.312500 -18.799999 186 186 186 
-2.937500 4.312500 -18.799999 177 177 177 
-2.875000 4.312500 -18.799999 171 171 171 
-2.812500 4.312500 -18.799999 165 165 165 
-2.750000 4.312500 -18.799999 150 150 150 
-2.687500 4.312500 -18.799999 114 114 114 
-2.625000 4.312500 -18.799999 88 88 88 
-2.562500 4.312500 -18.799999 81 81 81 
-2.500000 4.312500 -18.799999 81 81 81 
-1.565217 4.000000 -17.437681 207 207 207 
-1.540741 4.088889 -17.825184 179 179 179 
-1.562500 4.312500 -18.799999 138 138 138 
-1.500000 4.312500 -18.799999 142 142 142 
-1.437500 4.312500 -18.799999 166 166 166 
-1.375000 4.312500 -18.799999 184 184 184 
-1.312500 4.312500 -18.799999 190 190 190 
-1.250000 4.312500 -18.799999 194 194 194 
-1.187500 4.312500 -18.799999 195 195 195 
-1.125000 4.312500 -18.799999 195 195 195 
-1.062500 4.312500 -18.799999 193 193 193 
-1.000000 4.312500 -18.799999 193 193 193 
-0.750000 4.312500 -18.799999 201 201 201 
-0.687500 4.312500 -18.799999 198 198 198 
-0.500000 4.312500 -18.799999 195 195 195 
-0.437500 4.312500 -18.799999 197 197 197 
-0.375000 4.312500 -18.799999 198 198 198 
-0.312500 4.312500 -18.799999 198 198 198 
-0.250000 4.312500 -18.799999 198 198 198 
-0.187500 4.312500 -18.799999 196 196 196 
-0.125000 4.312500 -18.799999 195 195 195 
-0.062500 4.312500 -18.799999 193 193 193 
0.375000 4.312500 -18.799999 186 186 186 
0.320000 3.154286 -13.750856 188 188 188 
0.365714 3.154286 -13.750856 195 195 195 
0.412607 3.163324 -13.790257 188 188 188 
0.459770 3.172414 -13.829885 185 185 185 
0.507205 3.181556 -13.869740 184 184 184 
0.554913 3.190752 -13.909826 182 182 182 
0.812500 4.312500 -18.799999 181 181 181 
0.875000 4.312500 -18.799999 182 182 182 
0.738462 3.396923 -14.808615 182 182 182 
0.785276 3.386503 -14.763189 182 182 182 
0.831804 3.376147 -14.718042 183 183 183 
0.857143 3.285714 -14.323809 182 182 182 
0.904762 3.285714 -14.323809 182 182 182 
0.952381 3.285714 -14.323809 182 182 182 
1.002985 3.295522 -14.366567 184 184 184 
1.050746 3.295522 -14.366567 184 184 184 
1.095238 3.285714 -14.323809 184 184 184 
1.142857 3.285714 -14.323809 186 186 186 
1.190476 3.285714 -14.323809 186 186 186 
1.241791 3.295522 -14.366567 188 188 188 
1.317073 3.365854 -14.673170 189 189 189 
1.408805 3.471698 -15.134590 190 190 190 
1.468354 3.493671 -15.230379 188 188 188 
1.518987 3.493671 -15.230379 182 182 182 
1.569620 3.493671 -15.230379 182 182 182 
1.646302 3.549839 -15.475241 182 182 182 
1.665615 3.482650 -15.182334 183 183 183 
1.700000 3.450000 -15.039999 183 183 183 
1.733746 3.417957 -14.900309 182 182 182 
1.783282 3.417957 -14.900309 183 183 183 
1.832817 3.417957 -14.900309 183 183 183 
1.882353 3.417957 -14.900309 183 183 183 
1.943925 3.439252 -14.993146 184 184 184 
1.981424 3.417957 -14.900309 185 185 185 
2.024691 3.407408 -14.854321 185 185 185 
2.074074 3.407408 -14.854321 184 184 184 
2.123457 3.407408 -14.854321 184 184 184 
2.206897 3.460815 -15.087147 186 186 186 
2.271293 3.482650 -15.182334 187 187 187 
2.321767 3.482650 -15.182334 188 188 188 
2.364780 3.471698 -15.134590 187 187 187 
2.415094 3.471698 -15.134590 192 192 192 
2.465409 3.471698 -15.134590 194 194 194 
2.515723 3.471698 -15.134590 190 190 190 
2.582278 3.493671 -15.230379 190 190 190 
2.754967 3.655629 -15.936423 191 191 191 
2.836120 3.692308 -16.096321 195 195 195 
2.880000 3.680000 -16.042665 199 199 199 
2.923588 3.667774 -15.989368 203 203 203 
2.976744 3.667774 -15.989368 206 206 206 
3.009901 3.643564 -15.883828 207 207 207 
3.083056 3.667774 -15.989368 209 209 209 
6.062500 4.312500 -18.799999 244 244 244 
6.125000 4.312500 -18.799999 240 240 240 
6.187500 4.312500 -18.799999 237 237 237 
6.250000 4.312500 -18.799999 235 235 235 
6.312500 4.312500 -18.799999 235 235 235 
6.375000 4.312500 -18.799999 236 236 236 
7.759398 4.150376 -18.093233 217 217 217 
6.341464 3.365854 -14.673170 216 216 216 
6.313253 3.325301 -14.496385 223 223 223 
6.267062 3.275964 -14.281305 239 239 239 
2.518343 1.306509 -5.695621 243 243 243 
3.520525 1.812808 -7.902791 244 244 244 
3.413011 1.670197 -7.281089 235 235 235 
3.401198 1.652695 -7.204790 237 237 237 
3.399703 1.640416 -7.151263 246 246 246 
3.378299 1.618768 -7.056891 245 245 245 
3.386861 1.611679 -7.025985 245 245 245 
3.395349 1.604651 -6.995348 246 246 246 
3.413643 1.602322 -6.985196 246 246 246 
3.426918 1.597685 -6.964978 236 236 236 
3.450072 1.597685 -6.964978 226 226 226 
3.473227 1.597685 -6.964978 208 208 208 
3.506531 1.602322 -6.985196 214 214 214 
3.534884 1.604651 -6.995348 215 215 215 
7.285714 3.285714 -14.323809 227 227 227 
10.937500 4.312500 -18.799999 43 43 43 
11.000000 4.312500 -18.799999 42 42 42 
11.062500 4.312500 -18.799999 42 42 42 
11.125000 4.312500 -18.799999 37 37 37 
11.187500 4.312500 -18.799999 46 46 46 
11.250000 4.312500 -18.799999 53 53 53 
11.312500 4.312500 -18.799999 56 56 56 
11.375000 4.312500 -18.799999 54 54 54 
11.437500 4.312500 -18.799999 58 58 58 
10.903704 4.088889 -17.825184 55 55 55 
10.724638 4.000000 -17.437681 59 59 59 
10.442105 3.873684 -16.887016 73 73 73 
10.388889 3.833333 -16.711111 73 73 73 
-4.687500 4.250000 -18.799999 245 245 245 
-4.625000 4.250000 -18.799999 240 240 240 
-4.562500 4.250000 -18.799999 234 234 234 
-4.500000 4.250000 -18.799999 227 227 227 
-4.437500 4.250000 -18.799999 220 220 220 
-4.375000 4.250000 -18.799999 214 214 214 
-4.312500 4.250000 -18.799999 211 211 211 
-4.250000 4.250000 -18.799999 209 209 209 
-4.187500 4.250000 -18.799999 198 198 198 
-4.125000 4.250000 -18.799999 188 188 188 
-4.062500 4.250000 -18.799999 183 183 183 
-4.000000 4.250000 -18.799999 176 176 176 
-3.937500 4.250000 -18.799999 171 171 171 
-3.875000 4.250000 -18.799999 166 166 166 
-3.812500 4.250000 -18.799999 162 162 162 
-3.750000 4.250000 -18.799999 160 160 160 
-3.687500 4.250000 -18.799999 156 156 156 
-3.625000 4.250000 -18.799999 149 149 149 
-3.562500 4.250000 -18.799999 142 142 142 
-3.500000 4.250000 -18.799999 136 136 136 
-3.437500 4.250000 -18.799999 132 132 132 
-3.375000 4.250000 -18.799999 129 129 129 
-3.312500 4.250000 -18.799999 128 128 128 
-3.250000 4.250000 -18.799999 127 127 127 
-3.187500 4.250000 -18.799999 125 125 125 
-3.125000 4.250000 -18.799999 124 124 124 
-3.062500 4.250000 -18.799999 121 121 121 
-3.000000 4.250000 -18.799999 118 118 118 
-2.937500 4.250000 -18.799999 115 115 115 
-2.875000 4.250000 -18.799999 114 114 114 
-2.812500 4.250000 -18.799999 112 112 112 
-2.750000 4.250000 -18.799999 108 108 108 
-2.687500 4.250000 -18.799999 101 101 101 
-2.625000 4.250000 -18.799999 97 97 97 
-2.562500 4.250000 -18.799999 96 96 96 
-1.588235 4.000000 -17.694117 196 196 196 
-1.546468 4.044610 -17.891449 151 151 151 
-1.562500 4.250000 -18.799999 113 113 113 
-1.500000 4.250000 -18.799999 111 111 111 
-1.437500 4.250000 -18.799999 121 121 121 
-1.375000 4.250000 -18.799999 129 129 129 
-1.312500 4.250000 -18.799999 132 132 132 
-1.250000 4.250000 -18.799999 136 136 136 
-1.187500 4.250000 -18.799999 136 136 136 
-1.082707 4.090226 -18.093233 134 134 134 
-1.062500 4.250000 -18.799999 132 132 132 
-1.000000 4.250000 -18.799999 132 132 132 
-0.750000 4.250000 -18.799999 139 139 139 
-0.687500 4.250000 -18.799999 133 133 133 
-0.625000 4.250000 -18.799999 130 130 130 
-0.562500 4.250000 -18.799999 127 127 127 
-0.500000 4.250000 -18.799999 126 126 126 
-0.437500 4.250000 -18.799999 127 127 127 
-0.375000 4.250000 -18.799999 128 128 128 
-0.312500 4.250000 -18.799999 126 126 126 
-0.250000 4.250000 -18.799999 126 126 126 
-0.187500 4.250000 -18.799999 126 126 126 
-0.125000 4.250000 -18.799999 124 124 124 
0.418605 3.162791 -13.990697 134 134 134 
0.461095 3.135447 -13.869740 128 128 128 
0.508671 3.144509 -13.909826 127 127 127 
0.554913 3.144509 -13.909826 124 124 124 
0.812500 4.250000 -18.799999 123 123 123 
0.875000 4.250000 -18.799999 124 124 124 
0.937500 4.250000 -18.799999 122 122 122 
0.787692 3.347692 -14.808615 122 122 122 
0.831804 3.327217 -14.718042 124 124 124 
0.857143 3.238095 -14.323809 123 123 123 
0.904762 3.238095 -14.323809 123 123 123 
0.955224 3.247761 -14.366567 124 124 124 
1.002985 3.247761 -14.366567 124 124 124 
1.050746 3.247761 -14.366567 125 125 125 
1.095238 3.238095 -14.323809 125 125 125 
1.142857 3.238095 -14.323809 127 127 127 
1.194030 3.247761 -14.366567 129 129 129 
1.300000 3.400000 -15.039999 131 131 131 
1.350000 3.400000 -15.039999 135 135 135 
1.417722 3.443038 -15.230379 142 142 142 
1.468354 3.443038 -15.230379 142 142 142 
1.518987 3.443038 -15.230379 125 125 125 
1.594855 3.498392 -15.475241 119 119 119 
1.646302 3.498392 -15.475241 119 119 119 
1.697749 3.498392 -15.475241 124 124 124 
1.721519 3.443038 -15.230379 125 125 125 
1.750000 3.400000 -15.039999 123 123 123 
1.783282 3.368421 -14.900309 122 122 122 
1.832817 3.368421 -14.900309 124 124 124 
1.876543 3.358025 -14.854321 125 125 125 
1.925926 3.358025 -14.854321 126 126 126 
1.969231 3.347692 -14.808615 127 127 127 
2.018461 3.347692 -14.808615 127 127 127 
2.030211 3.287009 -14.540180 126 126 126 
2.123457 3.358025 -14.854321 124 124 124 
2.200000 3.400000 -15.039999 125 125 125 
2.250000 3.400000 -15.039999 125 125 125 
2.285714 3.378882 -14.946583 126 126 126 
2.320988 3.358025 -14.854321 129 129 129 
2.348624 3.327217 -14.718042 138 138 138 
2.412308 3.347692 -14.808615 141 141 141 
2.515723 3.421384 -15.134590 130 130 130 
2.574132 3.432177 -15.182334 126 126 126 
2.933333 3.626667 -16.042665 133 133 133 
2.976744 3.614618 -15.989368 134 134 134 
3.009901 3.590759 -15.883828 136 136 136 
3.072848 3.602649 -15.936423 139 139 139 
5.687500 4.250000 -18.799999 235 235 235 
5.750000 4.250000 -18.799999 235 235 235 
5.812500 4.250000 -18.799999 235 235 235 
5.875000 4.250000 -18.799999 235 235 235 
5.937500 4.250000 -18.799999 237 237 237 
6.000000 4.250000 -18.799999 240 240 240 
6.062500 4.250000 -18.799999 242 242 242 
6.125000 4.250000 -18.799999 241 241 241 
6.187500 4.250000 -18.799999 239 239 239 
6.250000 4.250000 -18.799999 241 241 241 
6.312500 4.250000 -18.799999 243 243 243 
3.413011 1.645991 -7.281089 235 235 235 
3.401198 1.628742 -7.204790 231 231 231 
3.399703 1.616642 -7.151263 239 239 239 
3.383260 1.597651 -7.067254 239 239 239 
3.386861 1.588321 -7.025985 237 237 237 
3.400291 1.583697 -7.005531 239 239 239 
3.418605 1.581395 -6.995348 238 238 238 
3.436865 1.579100 -6.985196 226 226 226 
3.450072 1.574530 -6.964978 228 228 228 
3.473227 1.574530 -6.964978 230 230 230 
3.506531 1.579100 -6.985196 210 210 210 
3.534884 1.581395 -6.995348 206 206 206 
4.955466 2.202429 -9.742510 205 205 205 
11.000000 4.250000 -18.799999 54 54 54 
11.062500 4.250000 -18.799999 49 49 49 
11.125000 4.250000 -18.799999 48 48 48 
11.187500 4.250000 -18.799999 52 52 52 
11.250000 4.250000 -18.799999 49 49 49 
11.312500 4.250000 -18.799999 59 59 59 
11.375000 4.250000 -18.799999 56 56 56 
11.437500 4.250000 -18.799999 55 55 55 
11.026217 4.074906 -18.025467 57 57 57 
10.802919 3.970803 -17.564962 48 48 48 
10.666667 3.899642 -17.250179 52 52 52 
10.498245 3.817544 -16.887016 74 74 74 
-4.687500 4.187500 -18.799999 157 157 157 
-4.625000 4.187500 -18.799999 149 149 149 
-4.562500 4.187500 -18.799999 140 140 140 
-4.500000 4.187500 -18.799999 132 132 132 
-4.437500 4.187500 -18.799999 126 126 126 
-4.375000 4.187500 -18.799999 121 121 121 
-4.312500 4.187500 -18.799999 119 119 119 
-4.250000 4.187500 -18.799999 118 118 118 
-4.187500 4.187500 -18.799999 117 117 117 
-4.125000 4.187500 -18.799999 118 118 118 
-4.062500 4.187500 -18.799999 118 118 118 
-4.000000 4.187500 -18.799999 119 119 119 
-3.937500 4.187500 -18.799999 119 119 119 
-3.875000 4.187500 -18.799999 120 120 120 
-3.812500 4.187500 -18.799999 123 123 123 
-3.750000 4.187500 -18.799999 126 126 126 
-3.687500 4.187500 -18.799999 128 128 128 
-3.625000 4.187500 -18.799999 130 130 130 
-3.562500 4.187500 -18.799999 132 132 132 
-3.500000 4.187500 -18.799999 131 131 131 
-3.437500 4.187500 -18.799999 132 132 132 
-3.375000 4.187500 -18.799999 133 133 133 
-3.312500 4.187500 -18.799999 137 137 137 
-3.250000 4.187500 -18.799999 137 137 137 
-3.187500 4.187500 -18.799999 135 135 135 
-3.125000 4.187500 -18.799999 134 134 134 
-3.062500 4.187500 -18.799999 133 133 133 
-3.000000 4.187500 -18.799999 131 131 131 
-2.937500 4.187500 -18.799999 129 129 129 
-2.875000 4.187500 -18.799999 127 127 127 
-2.812500 4.187500 -18.799999 126 126 126 
-2.750000 4.187500 -18.799999 123 123 123 
-2.687500 4.187500 -18.799999 120 120 120 
-2.625000 4.187500 -18.799999 117 117 117 
-2.562500 4.187500 -18.799999 116 116 116 
-1.550173 3.709342 -16.653286 208 208 208 
-1.611940 4.000000 -17.958208 170 170 170 
-1.552239 4.000000 -17.958208 106 106 106 
-1.509434 4.045283 -18.161509 83 83 83 
-1.449057 4.045283 -18.161509 83 83 83 
-1.437500 4.187500 -18.799999 88 88 88 
-1.375000 4.187500 -18.799999 92 92 92 
-1.258427 4.014981 -18.025467 98 98 98 
-1.176471 3.941176 -17.694117 102 102 102 
-1.125926 3.970370 -17.825184 106 106 106 
-1.078652 4.014981 -18.025467 106 106 106 
-1.026415 4.045283 -18.161509 109 109 109 
-1.000000 4.187500 -18.799999 111 111 111 
-0.581818 3.248485 -14.584242 106 106 106 
-0.516129 3.143695 -14.113783 102 102 102 
-0.461095 3.089337 -13.869740 102 102 102 
-0.562500 4.187500 -18.799999 103 103 103 
0.465116 3.116279 -13.990697 145 145 145 
0.511628 3.116279 -13.990697 145 145 145 
0.750000 4.187500 -18.799999 144 144 144 
0.812500 4.187500 -18.799999 143 143 143 
0.875000 4.187500 -18.799999 144 144 144 
0.937500 4.187500 -18.799999 141 141 141 
1.000000 4.187500 -18.799999 139 139 139 
1.062500 4.187500 -18.799999 141 141 141 
0.857143 3.190476 -14.323809 141 141 141 
1.002985 3.200000 -14.366567 141 141 141 
1.047619 3.190476 -14.323809 140 140 140 
1.095238 3.190476 -14.323809 141 141 141 
1.142857 3.190476 -14.323809 142 142 142 
1.250000 3.350000 -15.039999 142 142 142 
1.320635 3.403175 -15.278729 143 143 143 
1.371429 3.403175 -15.278729 148 148 148 
1.417722 3.392405 -15.230379 152 152 152 
1.468354 3.392405 -15.230379 143 143 143 
1.518987 3.392405 -15.230379 111 111 111 
1.569620 3.392405 -15.230379 96 96 96 
1.646302 3.446945 -15.475241 96 96 96 
1.766562 3.381703 -15.182334 107 107 107 
1.794392 3.339564 -14.993146 109 109 109 
1.799392 3.258359 -14.628571 126 126 126 
1.793510 3.162242 -14.197049 136 136 136 
1.896657 3.258359 -14.628571 138 138 138 
1.933535 3.238671 -14.540180 138 138 138 
1.981873 3.238671 -14.540180 140 140 140 
2.030211 3.238671 -14.540180 137 137 137 
2.059880 3.209581 -14.409580 135 135 135 
2.186335 3.329193 -14.946583 135 135 135 
2.222222 3.308642 -14.854321 131 131 131 
2.271605 3.308642 -14.854321 132 132 132 
2.299694 3.278287 -14.718042 135 135 135 
2.341463 3.268293 -14.673170 141 141 141 
2.397553 3.278287 -14.718042 144 144 144 
2.446483 3.278287 -14.718042 139 139 139 
3.235294 3.941176 -17.694117 130 130 130 
3.006711 3.597316 -16.150335 130 130 130 
3.019868 3.549669 -15.936423 130 130 130 
4.923077 3.926740 -17.629303 179 179 179 
5.000000 3.941176 -17.694117 175 175 175 
5.040293 3.926740 -17.629303 171 171 171 
5.028572 3.828571 -17.188570 170 170 170 
5.625000 4.187500 -18.799999 172 172 172 
5.687500 4.187500 -18.799999 174 174 174 
5.750000 4.187500 -18.799999 177 177 177 
5.812500 4.187500 -18.799999 178 178 178 
5.875000 4.187500 -18.799999 181 181 181 
5.937500 4.187500 -18.799999 185 185 185 
6.000000 4.187500 -18.799999 188 188 188 
6.062500 4.187500 -18.799999 192 192 192 
6.125000 4.187500 -18.799999 196 196 196 
6.187500 4.187500 -18.799999 201 201 201 
6.250000 4.187500 -18.799999 211 211 211 
7.632509 3.787986 -17.006359 241 241 241 
7.771429 3.828571 -17.188570 244 244 244 
7.828571 3.828571 -17.188570 243 243 243 
3.401760 1.571848 -7.056891 228 228 228 
3.410219 1.564963 -7.025985 229 229 229 
3.433577 1.564963 -7.025985 233 233 233 
8.054421 3.646259 -16.370068 223 223 223 
4.878049 2.178862 -9.782113 229 229 229 
4.870968 2.161290 -9.703225 225 225 225 
4.903226 2.161290 -9.703225 202 202 202 
4.945455 2.165657 -9.722828 190 190 190 
4.997972 2.174442 -9.762272 206 206 206 
11.000000 4.187500 -18.799999 60 60 60 
11.062500 4.187500 -18.799999 51 51 51 
11.125000 4.187500 -18.799999 51 51 51 
11.187500 4.187500 -18.799999 54 54 54 
11.250000 4.187500 -18.799999 51 51 51 
11.312500 4.187500 -18.799999 60 60 60 
11.375000 4.187500 -18.799999 58 58 58 
11.437500 4.187500 -18.799999 53 53 53 
11.500000 4.187500 -18.799999 51 51 51 
11.044776 4.000000 -17.958208 55 55 55 
10.821818 3.898182 -17.501091 51 51 51 
10.724014 3.842294 -17.250179 59 59 59 
-4.750000 4.125000 -18.799999 122 122 122 
-4.687500 4.125000 -18.799999 123 123 123 
-4.625000 4.125000 -18.799999 124 124 124 
-4.562500 4.125000 -18.799999 124 124 124 
-4.500000 4.125000 -18.799999 127 127 127 
-4.437500 4.125000 -18.799999 132 132 132 
-4.375000 4.125000 -18.799999 137 137 137 
-4.312500 4.125000 -18.799999 138 138 138 
-4.250000 4.125000 -18.799999 140 140 140 
-4.187500 4.125000 -18.799999 143 143 143 
-4.125000 4.125000 -18.799999 150 150 150 
-3.909775 3.969925 -18.093233 149 149 149 
-4.000000 4.125000 -18.799999 150 150 150 
-3.937500 4.125000 -18.799999 151 151 151 
-3.875000 4.125000 -18.799999 151 151 151 
-3.812500 4.125000 -18.799999 152 152 152 
-3.750000 4.125000 -18.799999 152 152 152 
-3.687500 4.125000 -18.799999 150 150 150 
-3.625000 4.125000 -18.799999 149 149 149 
-3.562500 4.125000 -18.799999 149 149 149 
-3.500000 4.125000 -18.799999 147 147 147 
-3.437500 4.125000 -18.799999 146 146 146 
-3.375000 4.125000 -18.799999 144 144 144 
-3.312500 4.125000 -18.799999 147 147 147 
-3.250000 4.125000 -18.799999 143 143 143 
-3.187500 4.125000 -18.799999 138 138 138 
-3.125000 4.125000 -18.799999 135 135 135 
-3.062500 4.125000 -18.799999 131 131 131 
-3.000000 4.125000 -18.799999 129 129 129 
-2.937500 4.125000 -18.799999 126 126 126 
-2.875000 4.125000 -18.799999 123 123 123 
-2.812500 4.125000 -18.799999 120 120 120 
-2.750000 4.125000 -18.799999 117 117 117 
-2.687500 4.125000 -18.799999 114 114 114 
-2.625000 4.125000 -18.799999 112 112 112 
-2.562500 4.125000 -18.799999 111 111 111 
-1.687500 4.125000 -18.799999 142 142 142 
-1.552239 3.940299 -17.958208 87 87 87 
-1.503759 3.969925 -18.093233 78 78 78 
-1.449057 3.984906 -18.161509 81 81 81 
-1.388679 3.984906 -18.161509 89 89 89 
-1.318352 3.955056 -18.025467 97 97 97 
-1.253731 3.940299 -17.958208 105 105 105 
-1.176471 3.882353 -17.694117 112 112 112 
-1.125926 3.911111 -17.825184 117 117 117 
-1.078652 3.955056 -18.025467 119 119 119 
-1.018727 3.955056 -18.025467 122 122 122 
-0.958802 3.955056 -18.025467 115 115 115 
-0.576577 3.171171 -14.452852 87 87 87 
-0.516129 3.096774 -14.113783 90 90 90 
-0.461095 3.043228 -13.869740 90 90 90 
0.750000 4.125000 -18.799999 143 143 143 
0.812500 4.125000 -18.799999 144 144 144 
0.875000 4.125000 -18.799999 138 138 138 
0.937500 4.125000 -18.799999 130 130 130 
1.000000 4.125000 -18.799999 128 128 128 
1.002985 3.152239 -14.366567 133 133 133 
1.047619 3.142857 -14.323809 130 130 130 
1.095238 3.142857 -14.323809 133 133 133 
1.142857 3.142857 -14.323809 138 138 138 
1.190476 3.142857 -14.323809 135 135 135 
1.234421 3.133531 -14.281305 128 128 128 
0.651584 1.592760 -7.259125 128 128 128 
0.675716 1.592760 -7.259125 126 126 126 
0.690476 1.571429 -7.161904 114 114 114 
0.714286 1.571429 -7.161904 87 87 87 
0.738095 1.571429 -7.161904 75 75 75 
0.775758 1.600000 -7.292121 77 77 77 
0.805594 1.476923 -6.731189 90 90 90 
0.825662 1.472803 -6.712412 100 100 100 
0.847978 1.472803 -6.712412 116 116 116 
0.869081 1.470752 -6.703064 126 126 126 
1.887906 3.115044 -14.197049 134 134 134 
2.018461 3.249231 -14.808615 137 137 137 
2.236025 3.279503 -14.946583 133 133 133 
2.271605 3.259259 -14.854321 131 131 131 
2.313846 3.249231 -14.808615 130 130 130 
2.348624 3.229358 -14.718042 130 130 130 
2.397553 3.229358 -14.718042 130 130 130 
3.066202 3.679442 -16.769337 127 127 127 
3.006711 3.543624 -16.150335 136 136 136 
3.019868 3.496689 -15.936423 137 137 137 
3.072848 3.496689 -15.936423 141 141 141 
3.845697 3.133531 -14.281305 165 165 165 
4.788321 3.854015 -17.564962 163 163 163 
4.864469 3.868132 -17.629303 162 162 162 
4.923077 3.868132 -17.629303 164 164 164 
4.981685 3.868132 -17.629303 163 163 163 
5.040293 3.868132 -17.629303 159 159 159 
5.028572 3.771429 -17.188570 148 148 148 
5.875000 4.125000 -18.799999 133 133 133 
5.937500 4.125000 -18.799999 131 131 131 
6.000000 4.125000 -18.799999 131 131 131 
6.062500 4.125000 -18.799999 131 131 131 
6.125000 4.125000 -18.799999 133 133 133 
6.187500 4.125000 -18.799999 136 136 136 
7.492958 3.718310 -16.946478 232 232 232 
7.522807 3.705263 -16.887016 223 223 223 
7.605634 3.718310 -16.946478 224 224 224 
7.689046 3.731449 -17.006359 238 238 238 
7.745583 3.731449 -17.006359 242 242 242 
7.857651 3.758007 -17.127401 241 241 241 
7.914591 3.758007 -17.127401 237 237 237 
4.910569 2.146342 -9.782113 229 229 229 
4.913131 2.133333 -9.722828 220 220 220 
4.945455 2.133333 -9.722828 188 188 188 
4.997972 2.141988 -9.762272 181 181 181 
8.051948 3.428571 -15.625974 208 208 208 
11.062500 4.125000 -18.799999 55 55 55 
11.125000 4.125000 -18.799999 52 52 52 
11.187500 4.125000 -18.799999 53 53 53 
11.250000 4.125000 -18.799999 58 58 58 
11.312500 4.125000 -18.799999 63 63 63 
11.375000 4.125000 -18.799999 55 55 55 
11.437500 4.125000 -18.799999 50 50 50 
11.500000 4.125000 -18.799999 45 45 45 
11.044776 3.940299 -17.958208 53 53 53 
10.821818 3.840000 -17.501091 51 51 51 
10.840580 3.826087 -17.437681 45 45 45 
-4.750000 4.062500 -18.799999 156 156 156 
-4.687500 4.062500 -18.799999 157 157 157 
-4.625000 4.062500 -18.799999 156 156 156 
-4.562500 4.062500 -18.799999 156 156 156 
-4.500000 4.062500 -18.799999 156 156 156 
-4.437500 4.062500 -18.799999 157 157 157 
-4.375000 4.062500 -18.799999 157 157 157 
-4.312500 4.062500 -18.799999 155 155 155 
-4.250000 4.062500 -18.799999 154 154 154 
-4.030075 3.909775 -18.093233 155 155 155 
-3.868132 3.809524 -17.629303 161 161 161 
-3.823529 3.823529 -17.694117 155 155 155 
-3.849624 3.909775 -18.093233 152 152 152 
-3.937500 4.062500 -18.799999 151 151 151 
-3.875000 4.062500 -18.799999 149 149 149 
-3.812500 4.062500 -18.799999 147 147 147 
-3.750000 4.062500 -18.799999 144 144 144 
-3.687500 4.062500 -18.799999 142 142 142 
-3.625000 4.062500 -18.799999 140 140 140 
-3.562500 4.062500 -18.799999 138 138 138 
-3.330855 3.866171 -17.891449 136 136 136 
-3.271375 3.866171 -17.891449 134 134 134 
-3.211896 3.866171 -17.891449 133 133 133 
-3.152416 3.866171 -17.891449 135 135 135 
-3.092937 3.866171 -17.891449 132 132 132 
-3.187500 4.062500 -18.799999 126 126 126 
-3.125000 4.062500 -18.799999 123 123 123 
-3.062500 4.062500 -18.799999 120 120 120 
-3.000000 4.062500 -18.799999 117 117 117 
-2.937500 4.062500 -18.799999 116 116 116 
-2.875000 4.062500 -18.799999 113 113 113 
-2.812500 4.062500 -18.799999 110 110 110 
-2.750000 4.062500 -18.799999 108 108 108 
-2.687500 4.062500 -18.799999 106 106 106 
-2.625000 4.062500 -18.799999 104 104 104 
-2.562500 4.062500 -18.799999 104 104 104 
-1.687500 4.062500 -18.799999 126 126 126 
-1.563910 3.909775 -18.093233 90 90 90 
-1.562500 4.062500 -18.799999 91 91 91 
-1.449057 3.924528 -18.161509 95 95 95 
-1.388679 3.924528 -18.161509 102 102 102 
-1.323308 3.909775 -18.093233 110 110 110 
-1.258427 3.895131 -18.025467 115 115 115 
-1.250000 4.062500 -18.799999 122 122 122 
-1.187500 4.062500 -18.799999 127 127 127 
-1.125000 4.062500 -18.799999 120 120 120 
-1.026415 3.924528 -18.161509 107 107 107 
-0.955224 3.880597 -17.958208 93 93 93 
-0.879121 3.809524 -17.629303 83 83 83 
-0.700000 3.250000 -15.039999 83 83 83 
-0.650000 3.250000 -15.039999 79 79 79 
-0.600000 3.250000 -15.039999 76 76 76 
-0.159363 2.071713 -9.587251 157 157 157 
0.750000 4.062500 -18.799999 175 175 175 
0.812500 4.062500 -18.799999 173 173 173 
0.875000 4.062500 -18.799999 147 147 147 
0.937500 4.062500 -18.799999 145 145 145 
0.963855 3.132530 -14.496385 132 132 132 
1.000000 3.095238 -14.323809 138 138 138 
1.047619 3.095238 -14.323809 140 140 140 
1.095238 3.095238 -14.323809 147 147 147 
1.142857 3.095238 -14.323809 155 155 155 
1.186944 3.086053 -14.281305 151 151 151 
1.198847 2.997118 -13.869740 133 133 133 
0.625181 1.505065 -6.964978 115 115 115 
0.654015 1.518248 -7.025985 96 96 96 
0.680352 1.524927 -7.056891 79 79 79 
0.707965 1.533923 -7.098525 67 67 67 
0.732644 1.536189 -7.109010 70 70 70 
0.761905 1.547619 -7.161904 71 71 71 
0.781032 1.450488 -6.712412 80 80 80 
0.802228 1.448468 -6.703064 78 78 78 
0.822222 1.444444 -6.684444 82 82 82 
0.843273 1.442441 -6.675173 93 93 93 
0.865465 1.442441 -6.675173 123 123 123 
0.887656 1.442441 -6.675173 155 155 155 
2.327273 3.151515 -14.584242 131 131 131 
2.347305 3.113772 -14.409580 128 128 128 
2.395210 3.113772 -14.409580 129 129 129 
2.428571 3.095238 -14.323809 128 128 128 
1.587786 1.984733 -9.184732 123 123 123 
1.609108 1.973435 -9.132447 117 117 117 
1.636364 1.969697 -9.115151 118 118 118 
1.666667 1.969697 -9.115151 131 131 131 
1.696970 1.969697 -9.115151 151 151 151 
1.720755 1.962264 -9.080754 154 154 154 
1.747646 1.958569 -9.063653 155 155 155 
1.774436 1.954887 -9.046617 148 148 148 
3.678161 2.988506 -13.829885 170 170 170 
3.811765 3.058824 -14.155293 166 166 166 
3.893175 3.086053 -14.281305 159 159 159 
4.864469 3.809524 -17.629303 156 156 156 
4.923077 3.809524 -17.629303 158 158 158 
4.601307 3.398693 -15.728104 159 159 159 
4.668852 3.409836 -15.779672 157 157 157 
5.875000 4.062500 -18.799999 149 149 149 
4.810127 3.291139 -15.230379 146 146 146 
4.755418 3.219814 -14.900309 144 144 144 
4.632836 3.104478 -14.366567 143 143 143 
8.187500 4.062500 -18.799999 222 222 222 
7.597122 3.741007 -17.312229 231 231 231 
7.388889 3.611111 -16.711111 242 242 242 
7.496503 3.636364 -16.827971 239 239 239 
7.605634 3.661972 -16.946478 225 225 225 
7.689046 3.674912 -17.006359 231 231 231 
7.745583 3.674912 -17.006359 238 238 238 
7.857651 3.701068 -17.127401 240 240 240 
7.914591 3.701068 -17.127401 238 238 238 
7.750865 3.598616 -16.653286 235 235 235 
7.396721 3.409836 -15.779672 228 228 228 
7.449180 3.409836 -15.779672 214 214 214 
9.250000 4.062500 -18.799999 218 218 218 
8.052631 3.421053 -15.831578 217 217 217 
8.000000 3.376623 -15.625974 176 176 176 
8.051948 3.376623 -15.625974 180 180 180 
8.103896 3.376623 -15.625974 208 208 208 
5.607143 2.321429 -10.742857 224 224 224 
11.062500 4.062500 -18.799999 52 52 52 
11.125000 4.062500 -18.799999 51 51 51 
11.187500 4.062500 -18.799999 55 55 55 
11.250000 4.062500 -18.799999 62 62 62 
11.312500 4.062500 -18.799999 60 60 60 
11.375000 4.062500 -18.799999 47 47 47 
11.437500 4.062500 -18.799999 46 46 46 
11.500000 4.062500 -18.799999 49 49 49 
10.882353 3.823529 -17.694117 53 53 53 
10.861314 3.795620 -17.564962 50 50 50 
10.840580 3.768116 -17.437681 44 44 44 
-4.750000 4.000000 -18.799999 153 153 153 
-4.687500 4.000000 -18.799999 152 152 152 
-4.625000 4.000000 -18.799999 150 150 150 
-4.562500 4.000000 -18.799999 148 148 148 
-4.500000 4.000000 -18.799999 148 148 148 
-4.437500 4.000000 -18.799999 147 147 147 
-4.375000 4.000000 -18.799999 146 146 146 
-4.312500 4.000000 -18.799999 144 144 144 
-4.250000 4.000000 -18.799999 142 142 142 
-3.941176 3.764706 -17.694117 142 142 142 
-3.854015 3.737226 -17.564962 145 145 145 
-3.754513 3.696751 -17.374729 141 141 141 
-3.764706 3.764706 -17.694117 138 138 138 
-3.937500 4.000000 -18.799999 135 135 135 
-3.875000 4.000000 -18.799999 134 134 134 
-3.812500 4.000000 -18.799999 133 133 133 
-3.609023 3.849624 -18.093233 130 130 130 
-3.687500 4.000000 -18.799999 128 128 128 
-3.625000 4.000000 -18.799999 127 127 127 
-3.562500 4.000000 -18.799999 126 126 126 
-3.330855 3.806691 -17.891449 125 125 125 
-3.271375 3.806691 -17.891449 124 124 124 
-3.211896 3.806691 -17.891449 123 123 123 
-3.140741 3.792593 -17.825184 125 125 125 
-3.081481 3.792593 -17.825184 123 123 123 
-3.044776 3.820895 -17.958208 116 116 116 
-3.125000 4.000000 -18.799999 113 113 113 
-3.062500 4.000000 -18.799999 111 111 111 
-3.000000 4.000000 -18.799999 108 108 108 
-2.937500 4.000000 -18.799999 106 106 106 
-2.875000 4.000000 -18.799999 104 104 104 
-2.812500 4.000000 -18.799999 103 103 103 
-2.750000 4.000000 -18.799999 100 100 100 
-2.687500 4.000000 -18.799999 99 99 99 
-2.625000 4.000000 -18.799999 98 98 98 
-1.625000 4.000000 -18.799999 111 111 111 
-1.562500 4.000000 -18.799999 123 123 123 
-1.500000 4.000000 -18.799999 123 123 123 
-1.437500 4.000000 -18.799999 134 134 134 
-1.375000 4.000000 -18.799999 151 151 151 
-1.312500 4.000000 -18.799999 149 149 149 
-1.250000 4.000000 -18.799999 157 157 157 
-1.187500 4.000000 -18.799999 161 161 161 
-1.125000 4.000000 -18.799999 119 119 119 
-1.062500 4.000000 -18.799999 87 87 87 
-0.534447 2.137787 -10.047599 81 81 81 
-0.501044 2.137787 -10.047599 76 76 76 
-0.468619 2.142259 -10.068619 73 73 73 
-0.624625 3.075075 -14.452852 73 73 73 
-0.600000 3.200000 -15.039999 71 71 71 
-0.223108 2.039841 -9.587251 90 90 90 
-0.190099 2.027723 -9.530296 132 132 132 
-0.158416 2.027723 -9.530296 192 192 192 
0.000000 2.085540 -9.802036 225 225 225 
0.750000 4.000000 -18.799999 225 225 225 
0.812500 4.000000 -18.799999 213 213 213 
0.875000 4.000000 -18.799999 177 177 177 
0.937500 4.000000 -18.799999 189 189 189 
0.963855 3.084337 -14.496385 171 171 171 
1.000000 3.047619 -14.323809 192 192 192 
1.047619 3.047619 -14.323809 195 195 195 
1.373134 3.820895 -17.958208 197 197 197 
1.432836 3.820895 -17.958208 200 200 200 
1.152738 2.951009 -13.869740 196 196 196 
0.592593 1.458689 -6.855840 170 170 170 
0.622478 1.475504 -6.934870 109 109 109 
0.649275 1.484058 -6.975072 78 78 78 
0.680352 1.501466 -7.056891 65 65 65 
0.706922 1.508100 -7.088070 65 65 65 
0.731563 1.510324 -7.098525 76 76 76 
0.756278 1.512555 -7.109010 72 72 72 
0.779911 1.512555 -7.109010 69 69 69 
0.795322 1.497076 -7.036257 82 82 82 
0.783217 1.432168 -6.731189 81 81 81 
0.800000 1.422222 -6.684444 78 78 78 
0.821082 1.420250 -6.675173 78 78 78 
0.843273 1.420250 -6.675173 83 83 83 
0.864266 1.418283 -6.665928 113 113 113 
0.885201 1.416321 -6.656708 166 166 166 
0.908587 1.418283 -6.665928 192 192 192 
1.580645 2.064516 -9.703225 182 182 182 
1.565558 2.003914 -9.418395 171 171 171 
1.575290 1.976834 -9.291120 158 158 158 
1.587786 1.954198 -9.184732 154 154 154 
1.609108 1.943074 -9.132447 157 157 157 
1.636364 1.939394 -9.115151 165 165 165 
1.657251 1.928437 -9.063653 181 181 181 
1.687382 1.928437 -9.063653 197 197 197 
1.717514 1.928437 -9.063653 194 194 194 
1.744361 1.924812 -9.046617 182 182 182 
1.774436 1.924812 -9.046617 179 179 179 
4.788321 3.737226 -17.564962 162 162 162 
4.864469 3.750916 -17.629303 155 155 155 
4.923077 3.750916 -17.629303 162 162 162 
4.981685 3.750916 -17.629303 161 161 161 
5.040293 3.750916 -17.629303 158 158 158 
4.833333 3.555556 -16.711111 162 162 162 
4.677741 3.401993 -15.989368 160 160 160 
4.684210 3.368421 -15.831578 160 160 160 
4.784053 3.401993 -15.989368 154 154 154 
4.862745 3.346405 -15.728104 158 158 158 
4.836013 3.292604 -15.475241 154 154 154 
4.735202 3.190031 -14.993146 142 142 142 
4.585074 3.056716 -14.366567 136 136 136 
4.498551 2.968116 -13.950145 134 134 134 
4.518732 2.951009 -13.869740 132 132 132 
4.500000 2.909091 -13.672727 133 133 133 
7.178082 3.506849 -16.482191 180 180 180 
7.333333 3.555556 -16.711111 188 188 188 
7.388889 3.555556 -16.711111 196 196 196 
7.444445 3.555556 -16.711111 202 202 202 
7.552447 3.580420 -16.827971 197 197 197 
7.661972 3.605634 -16.946478 189 189 189 
7.718310 3.605634 -16.946478 203 203 203 
7.774648 3.605634 -16.946478 215 215 215 
7.538983 3.471186 -16.314575 222 222 222 
5.642317 2.579345 -12.122921 223 223 223 
5.654135 2.566416 -12.062155 222 222 222 
7.144654 3.220126 -15.134590 204 204 204 
8.937500 4.000000 -18.799999 183 183 183 
9.250000 4.000000 -18.799999 204 204 204 
9.312500 4.000000 -18.799999 199 199 199 
8.103896 3.324675 -15.625974 159 159 159 
5.594655 2.280624 -10.718930 179 179 179 
5.642857 2.285714 -10.742857 199 199 199 
11.062500 4.000000 -18.799999 49 49 49 
11.125000 4.000000 -18.799999 56 56 56 
11.187500 4.000000 -18.799999 58 58 58 
11.250000 4.000000 -18.799999 61 61 61 
11.312500 4.000000 -18.799999 56 56 56 
11.375000 4.000000 -18.799999 45 45 45 
11.437500 4.000000 -18.799999 43 43 43 
11.500000 4.000000 -18.799999 51 51 51 
10.882353 3.764706 -17.694117 57 57 57 
10.941176 3.764706 -17.694117 53 53 53 
10.959707 3.750916 -17.629303 49 49 49 
-4.750000 3.937500 -18.799999 137 137 137 
-4.687500 3.937500 -18.799999 137 137 137 
-4.625000 3.937500 -18.799999 136 136 136 
-4.562500 3.937500 -18.799999 135 135 135 
-4.500000 3.937500 -18.799999 134 134 134 
-4.437500 3.937500 -18.799999 132 132 132 
-4.375000 3.937500 -18.799999 131 131 131 
-4.312500 3.937500 -18.799999 130 130 130 
-4.250000 3.937500 -18.799999 129 129 129 
-3.941176 3.705882 -17.694117 129 129 129 
-3.812274 3.638989 -17.374729 132 132 132 
-3.727599 3.612903 -17.250179 129 129 129 
-3.670251 3.612903 -17.250179 126 126 126 
-3.937500 3.937500 -18.799999 124 124 124 
-3.875000 3.937500 -18.799999 123 123 123 
-3.683019 3.803774 -18.161509 122 122 122 
-3.582090 3.761194 -17.958208 119 119 119 
-3.562264 3.803774 -18.161509 117 117 117 
-3.625000 3.937500 -18.799999 117 117 117 
-3.562500 3.937500 -18.799999 117 117 117 
-3.500000 3.937500 -18.799999 118 118 118 
-3.437500 3.937500 -18.799999 117 117 117 
-3.211896 3.747212 -17.891449 116 116 116 
-3.140741 3.733333 -17.825184 119 119 119 
-3.081481 3.733333 -17.825184 117 117 117 
-3.187500 3.937500 -18.799999 111 111 111 
-3.125000 3.937500 -18.799999 109 109 109 
-3.062500 3.937500 -18.799999 107 107 107 
-3.000000 3.937500 -18.799999 105 105 105 
-2.937500 3.937500 -18.799999 104 104 104 
-2.875000 3.937500 -18.799999 102 102 102 
-2.812500 3.937500 -18.799999 99 99 99 
-2.750000 3.937500 -18.799999 96 96 96 
-2.687500 3.937500 -18.799999 96 96 96 
-2.625000 3.937500 -18.799999 97 97 97 
-1.625000 3.937500 -18.799999 141 141 141 
-1.562500 3.937500 -18.799999 147 147 147 
-1.500000 3.937500 -18.799999 151 151 151 
-1.187500 3.937500 -18.799999 169 169 169 
-1.062500 3.937500 -18.799999 69 69 69 
-0.534447 2.104384 -10.047599 68 68 68 
-0.501044 2.104384 -10.047599 65 65 65 
-0.467641 2.104384 -10.047599 59 59 59 
-0.434238 2.104384 -10.047599 60 60 60 
-0.400835 2.104384 -10.047599 68 68 68 
-0.366667 2.100000 -10.026667 72 72 72 
-0.329897 2.078351 -9.923299 71 71 71 
-0.289738 2.028169 -9.683702 76 76 76 
-0.252964 1.992095 -9.511462 76 76 76 
-0.221782 1.996040 -9.530296 74 74 74 
-0.189349 1.988166 -9.492702 104 104 104 
-0.158416 1.996040 -9.530296 178 178 178 
-0.150235 2.366197 -11.297652 233 233 233 
-0.043478 2.739130 -13.078260 218 218 218 
0.000000 2.709677 -12.937634 244 244 244 
0.043011 2.709677 -12.937634 247 247 247 
0.750000 3.937500 -18.799999 245 245 245 
0.812500 3.937500 -18.799999 233 233 233 
0.875000 3.937500 -18.799999 201 201 201 
0.932515 3.092025 -14.763189 199 199 199 
0.963855 3.036144 -14.496385 214 214 214 
1.000000 3.000000 -14.323809 229 229 229 
1.044510 2.991098 -14.281305 231 231 231 
1.085546 2.973451 -14.197049 233 233 233 
1.411765 3.705882 -17.694117 224 224 224 
0.567376 1.429787 -6.826666 206 206 206 
0.590909 1.431818 -6.836363 152 152 152 
0.613636 1.431818 -6.836363 88 88 88 
0.654015 1.471533 -7.025985 72 72 72 
0.684366 1.486726 -7.098525 71 71 71 
0.707965 1.486726 -7.098525 75 75 75 
0.731563 1.486726 -7.098525 80 80 80 
0.754050 1.484536 -7.088070 79 79 79 
0.771930 1.473684 -7.036257 75 75 75 
0.795322 1.473684 -7.036257 75 75 75 
0.813953 1.465116 -6.995348 79 79 79 
0.802228 1.403900 -6.703064 77 77 77 
0.821082 1.398058 -6.675173 65 65 65 
0.840941 1.394191 -6.656708 67 67 67 
0.861878 1.392265 -6.647513 88 88 88 
0.881543 1.388430 -6.629201 133 133 133 
0.903581 1.388430 -6.629201 170 170 170 
1.909091 2.863636 -13.672727 170 170 170 
1.548387 2.032258 -9.703225 246 246 246 
1.534247 1.972603 -9.418395 235 235 235 
1.556420 1.961089 -9.363423 206 206 206 
1.578337 1.949710 -9.309091 181 181 181 
1.606178 1.945946 -9.291120 202 202 202 
1.637066 1.945946 -9.291120 226 226 226 
1.655172 1.931034 -9.219923 236 236 236 
1.657251 1.898305 -9.063653 240 240 240 
1.681051 1.891182 -9.029643 244 244 244 
1.707865 1.887640 -9.012733 236 236 236 
1.734579 1.884112 -8.995888 215 215 215 
1.764486 1.884112 -8.995888 219 219 219 
1.781076 1.870130 -8.929128 219 219 219 
4.688645 3.692308 -17.629303 211 211 211 
4.747253 3.692308 -17.629303 181 181 181 
4.788321 3.678832 -17.564962 173 173 173 
4.864469 3.692308 -17.629303 168 168 168 
4.923077 3.692308 -17.629303 184 184 184 
4.833333 3.500000 -16.711111 181 181 181 
4.631579 3.315789 -15.831578 182 182 182 
4.653595 3.294118 -15.728104 185 185 185 
4.705883 3.294118 -15.728104 187 187 187 
4.789474 3.315789 -15.831578 196 196 196 
4.842105 3.315789 -15.831578 205 205 205 
4.831169 3.272727 -15.625974 207 207 207 
4.759494 3.189873 -15.230379 188 188 188 
4.705883 3.120743 -14.900309 165 165 165 
4.697248 3.082569 -14.718042 156 156 156 
4.619048 3.000000 -14.323809 148 148 148 
6.125000 3.937500 -18.799999 143 143 143 
6.187500 3.937500 -18.799999 141 141 141 
4.427397 2.761644 -13.185753 163 163 163 
4.471233 2.761644 -13.185753 184 184 184 
4.527472 2.769231 -13.221977 184 184 184 
7.123288 3.452055 -16.482191 132 132 132 
6.940397 3.337748 -15.936423 122 122 122 
7.232877 3.452055 -16.482191 125 125 125 
7.363322 3.487889 -16.653286 127 127 127 
7.444445 3.500000 -16.711111 129 129 129 
7.500000 3.500000 -16.711111 129 129 129 
7.555555 3.500000 -16.711111 120 120 120 
7.611111 3.500000 -16.711111 128 128 128 
7.434343 3.393939 -16.204714 145 145 145 
5.702564 2.584615 -12.340512 157 157 157 
5.614035 2.526316 -12.062155 169 169 169 
5.654135 2.526316 -12.062155 176 176 176 
7.034056 3.120743 -14.900309 167 167 167 
7.150000 3.150000 -15.039999 145 145 145 
7.245283 3.169811 -15.134590 150 150 150 
9.187500 3.937500 -18.799999 155 155 155 
9.250000 3.937500 -18.799999 168 168 168 
9.312500 3.937500 -18.799999 172 172 172 
10.235294 3.705882 -17.694117 56 56 56 
11.062500 3.937500 -18.799999 52 52 52 
11.125000 3.937500 -18.799999 56 56 56 
11.187500 3.937500 -18.799999 55 55 55 
11.250000 3.937500 -18.799999 48 48 48 
11.312500 3.937500 -18.799999 47 47 47 
11.375000 3.937500 -18.799999 45 45 45 
11.437500 3.937500 -18.799999 47 47 47 
11.500000 3.937500 -18.799999 52 52 52 
10.962963 3.733333 -17.825184 54 54 54 
10.981550 3.719557 -17.759409 52 52 52 
11.687500 3.937500 -18.799999 47 47 47 
-4.750000 3.875000 -18.799999 123 123 123 
-4.687500 3.875000 -18.799999 122 122 122 
-4.625000 3.875000 -18.799999 121 121 121 
-4.562500 3.875000 -18.799999 119 119 119 
-4.500000 3.875000 -18.799999 117 117 117 
-4.437500 3.875000 -18.799999 115 115 115 
-4.375000 3.875000 -18.799999 114 114 114 
-4.312500 3.875000 -18.799999 114 114 114 
-4.250000 3.875000 -18.799999 116 116 116 
-3.941176 3.647059 -17.694117 118 118 118 
-3.882353 3.647059 -17.694117 125 125 125 
-3.754513 3.581228 -17.374729 122 122 122 
-3.849624 3.729323 -18.093233 120 120 120 
-3.937500 3.875000 -18.799999 119 119 119 
-3.875000 3.875000 -18.799999 119 119 119 
-3.812500 3.875000 -18.799999 119 119 119 
-3.582090 3.701493 -17.958208 116 116 116 
-3.687500 3.875000 -18.799999 113 113 113 
-3.625000 3.875000 -18.799999 112 112 112 
-3.562500 3.875000 -18.799999 113 113 113 
-3.500000 3.875000 -18.799999 113 113 113 
-3.437500 3.875000 -18.799999 113 113 113 
-3.375000 3.875000 -18.799999 112 112 112 
-3.140741 3.674074 -17.825184 115 115 115 
-3.036496 3.620438 -17.564962 113 113 113 
-3.187500 3.875000 -18.799999 110 110 110 
-3.125000 3.875000 -18.799999 107 107 107 
-3.062500 3.875000 -18.799999 104 104 104 
-3.000000 3.875000 -18.799999 102 102 102 
-2.937500 3.875000 -18.799999 100 100 100 
-2.875000 3.875000 -18.799999 97 97 97 
-2.812500 3.875000 -18.799999 94 94 94 
-2.750000 3.875000 -18.799999 93 93 93 
-2.687500 3.875000 -18.799999 93 93 93 
-2.625000 3.875000 -18.799999 94 94 94 
-1.554502 2.350711 -11.404738 96 96 96 
-0.533333 2.066667 -10.026667 63 63 63 
-0.500000 2.066667 -10.026667 61 61 61 
-0.466667 2.066667 -10.026667 53 53 53 
-0.433333 2.066667 -10.026667 56 56 56 
-0.399168 2.062370 -10.005821 64 64 64 
-0.356275 2.008097 -9.742510 66 66 66 
-0.320000 1.984000 -9.625600 65 65 65 
-0.284585 1.960474 -9.511462 72 72 72 
-0.252465 1.956607 -9.492702 77 77 77 
-0.220907 1.956607 -9.492702 70 70 70 
-0.187867 1.941292 -9.418395 86 86 86 
-0.158416 1.964356 -9.530296 141 141 141 
-0.149184 2.312354 -11.218648 225 225 225 
0.000000 2.681081 -13.007567 236 236 236 
0.043011 2.666667 -12.937634 241 241 241 
0.086022 2.666667 -12.937634 243 243 243 
0.812500 3.875000 -18.799999 243 243 243 
0.875000 3.875000 -18.799999 229 229 229 
0.929664 3.033639 -14.718042 214 214 214 
0.960961 2.978979 -14.452852 211 211 211 
1.000000 2.952381 -14.323809 215 215 215 
1.038348 2.926254 -14.197049 226 226 226 
0.525714 1.417143 -6.875428 227 227 227 
0.545455 1.409091 -6.836363 202 202 202 
0.567376 1.407092 -6.826666 154 154 154 
0.590071 1.407092 -6.826666 101 101 101 
0.613636 1.409091 -6.836363 70 70 70 
0.661743 1.465288 -7.109010 65 65 65 
0.685377 1.465288 -7.109010 69 69 69 
0.707965 1.463127 -7.098525 74 74 74 
0.726208 1.452416 -7.046559 77 77 77 
0.748538 1.450292 -7.036257 75 75 75 
0.771930 1.450292 -7.036257 76 76 76 
0.802360 1.463127 -7.098525 75 75 75 
0.818811 1.372061 -6.656708 59 59 59 
0.838621 1.368276 -6.638345 56 56 56 
0.859504 1.366391 -6.629201 76 76 76 
0.876712 1.358904 -6.592876 106 106 106 
0.892517 1.349660 -6.548027 146 146 146 
0.914286 1.349660 -6.548027 185 185 185 
1.954545 2.818182 -13.672727 207 207 207 
1.543307 1.952756 -9.474015 234 234 234 
1.574803 1.952756 -9.474015 208 208 208 
1.651032 1.861163 -9.029643 253 253 253 
1.261972 1.397183 -6.778591 253 253 253 
1.275524 1.387413 -6.731189 252 252 252 
1.288889 1.377778 -6.684444 243 243 243 
1.291382 1.357045 -6.583858 237 237 237 
1.286863 1.329759 -6.451474 233 233 233 
1.308311 1.329759 -6.451474 228 228 228 
1.329759 1.329759 -6.451474 234 234 234 
1.362162 1.340541 -6.503784 235 235 235 
4.805861 3.633700 -17.629303 196 196 196 
4.864469 3.633700 -17.629303 183 183 183 
4.941176 3.647059 -17.694117 200 200 200 
5.000000 3.647059 -17.694117 209 209 209 
4.709030 3.317726 -16.096321 206 206 206 
4.653595 3.241830 -15.728104 212 212 212 
2.487047 1.713299 -8.312263 229 229 229 
2.519031 1.716263 -8.326643 237 237 237 
4.779221 3.220779 -15.625974 242 242 242 
4.784566 3.189711 -15.475241 240 240 240 
4.656347 3.071208 -14.900309 222 222 222 
4.705883 3.071208 -14.900309 211 211 211 
4.755418 3.071208 -14.900309 194 194 194 
6.125000 3.875000 -18.799999 185 185 185 
6.187500 3.875000 -18.799999 182 182 182 
6.375000 3.875000 -18.799999 233 233 233 
4.527472 2.725275 -13.221977 237 237 237 
6.956522 3.317726 -16.096321 145 145 145 
6.917492 3.273927 -15.883828 128 128 128 
6.993378 3.284768 -15.936423 128 128 128 
7.682311 3.581228 -17.374729 133 133 133 
7.522807 3.480702 -16.887016 129 129 129 
7.500000 3.444444 -16.711111 125 125 125 
7.555555 3.444444 -16.711111 118 118 118 
7.558620 3.420690 -16.595861 108 108 108 
7.434343 3.340067 -16.204714 107 107 107 
7.037975 3.139241 -15.230379 110 110 110 
6.978193 3.090343 -14.993146 122 122 122 
7.139241 3.139241 -15.230379 130 130 130 
7.100000 3.100000 -15.039999 121 121 121 
8.411765 3.647059 -17.694117 109 109 109 
8.470589 3.647059 -17.694117 108 108 108 
7.443038 3.139241 -15.230379 117 117 117 
7.493671 3.139241 -15.230379 123 123 123 
7.358025 3.061728 -14.854321 129 129 129 
8.706714 3.505300 -17.006359 158 158 158 
8.763251 3.505300 -17.006359 136 136 136 
8.946237 3.555556 -17.250179 129 129 129 
9.201466 3.633700 -17.629303 142 142 142 
8.075235 3.109718 -15.087147 175 175 175 
8.100000 3.100000 -15.039999 147 147 147 
8.150000 3.100000 -15.039999 77 77 77 
