ply
format ascii 1.0
element vertex 1206
property float x
property float y
property float z
property uchar red
property uchar green
property uchar blue
end_header
3.294698 0.552404 -5.934402 122 122 122 
2.604651 0.434109 -4.663566 104 104 104 
2.620155 0.434109 -4.663566 71 71 71 
2.635659 0.434109 -4.663566 62 62 62 
2.671875 0.437500 -4.700000 54 54 54 
2.687500 0.437500 -4.700000 53 53 53 
5.406250 0.875000 -9.400000 59 59 59 
5.437500 0.875000 -9.400000 60 60 60 
5.468750 0.875000 -9.400000 56 56 56 
5.500000 0.875000 -9.400000 58 58 58 
5.446154 0.861538 -9.255384 57 57 57 
4.450000 0.700000 -7.520000 58 58 58 
4.475000 0.700000 -7.520000 64 64 64 
5.538462 0.861538 -9.255384 59 59 59 
5.569231 0.861538 -9.255384 48 48 48 
5.687500 0.875000 -9.400000 48 48 48 
7.766578 1.188329 -12.766047 56 56 56 
7.809019 1.188329 -12.766047 52 52 52 
7.851459 1.188329 -12.766047 45 45 45 
7.750000 1.166667 -12.533333 47 47 47 
7.791667 1.166667 -12.533333 52 52 52 
-0.832307 0.295688 -3.294182 91 91 91 
-0.819113 0.294881 -3.285187 91 91 91 
-0.808191 0.294881 -3.285187 86 86 86 
-0.796183 0.294479 -3.280709 80 80 80 
-0.784741 0.294278 -3.278474 78 78 78 
-0.773842 0.294278 -3.278474 76 76 76 
-0.763984 0.294679 -3.282947 74 74 74 
-0.604465 0.247281 -2.754894 77 77 77 
-0.592593 0.246154 -2.742336 79 79 79 
-0.581818 0.245455 -2.734545 78 78 78 
-0.572727 0.245455 -2.734545 79 79 79 
-0.562677 0.245037 -2.729892 75 75 75 
-0.552975 0.244759 -2.726799 81 81 81 
-0.543294 0.244482 -2.723712 96 96 96 
-0.534239 0.244482 -2.723712 95 95 95 
-0.525779 0.244759 -2.726799 78 78 78 
-0.411937 0.252779 -2.816150 60 60 60 
-0.401869 0.252336 -2.811215 58 58 58 
-0.392753 0.252484 -2.812858 57 57 57 
0.715789 0.568421 -6.332631 48 48 48 
0.733945 0.566186 -6.307733 54 54 54 
0.753927 0.565445 -6.299476 51 51 51 
0.772846 0.563969 -6.283029 48 48 48 
0.793734 0.563969 -6.283029 50 50 50 
0.891304 0.586957 -6.539130 48 48 48 
0.913043 0.586957 -6.539130 47 47 47 
0.971034 0.595862 -6.638345 53 53 53 
0.990371 0.594223 -6.620082 47 47 47 
1.012380 0.594223 -6.620082 45 45 45 
1.027322 0.590164 -6.574863 48 48 48 
1.047749 0.589359 -6.565893 55 55 55 
1.068120 0.588556 -6.556948 55 55 55 
1.089918 0.588556 -6.556948 56 56 56 
1.113233 0.589359 -6.565893 58 58 58 
3.203931 0.530713 -5.912530 78 78 78 
3.219632 0.530061 -5.905276 69 69 69 
3.243243 0.530713 -5.912530 78 78 78 
3.274969 0.532676 -5.934402 94 94 94 
3.286593 0.531365 -5.919803 108 108 108 
2.604651 0.418605 -4.663566 113 113 113 
2.620155 0.418605 -4.663566 80 80 80 
2.635659 0.418605 -4.663566 72 72 72 
2.671875 0.421875 -4.700000 69 69 69 
2.687500 0.421875 -4.700000 67 67 67 
5.406250 0.843750 -9.400000 57 57 57 
5.437500 0.843750 -9.400000 55 55 55 
5.468750 0.843750 -9.400000 52 52 52 
5.500000 0.843750 -9.400000 52 52 52 
5.446154 0.830769 -9.255384 58 58 58 
4.450000 0.675000 -7.520000 54 54 54 
4.475000 0.675000 -7.520000 53 53 53 
5.538462 0.830769 -9.255384 57 57 57 
5.569231 0.830769 -9.255384 56 56 56 
5.687500 0.843750 -9.400000 51 51 51 
7.766578 1.145889 -12.766047 55 55 55 
7.809019 1.145889 -12.766047 58 58 58 
7.851459 1.145889 -12.766047 53 53 53 
7.750000 1.125000 -12.533333 54 54 54 
7.791667 1.125000 -12.533333 45 45 45 
-0.832877 0.284932 -3.296438 79 79 79 
-0.821355 0.284736 -3.294182 79 79 79 
-0.809296 0.284347 -3.289679 76 76 76 
-0.797270 0.283959 -3.285187 74 74 74 
-0.785812 0.283765 -3.282947 75 75 75 
-0.774898 0.283765 -3.282947 81 81 81 
-0.762423 0.283186 -3.276242 81 81 81 
-0.627273 0.236364 -2.734545 80 80 80 
-0.617480 0.236095 -2.731441 80 80 80 
-0.612222 0.237579 -2.748601 79 79 79 
-0.601709 0.237037 -2.742336 80 80 80 
-0.591245 0.236498 -2.736100 82 82 82 
-0.581158 0.236095 -2.731441 84 84 84 
-0.571105 0.235694 -2.726799 84 84 84 
-0.561404 0.235427 -2.723712 77 77 77 
-0.552349 0.235427 -2.723712 79 79 79 
-0.540541 0.234234 -2.709910 94 94 94 
-0.531532 0.234234 -2.709910 97 97 97 
-0.522523 0.234234 -2.709910 84 84 84 
-0.518182 0.236364 -2.734545 78 78 78 
-0.535433 0.272966 -3.158005 57 57 57 
-0.519481 0.270130 -3.125195 58 58 58 
-0.507115 0.269082 -3.113066 60 60 60 
-0.496124 0.268734 -3.109044 60 60 60 
-0.411937 0.243417 -2.816150 58 58 58 
-0.402104 0.243133 -2.812858 58 58 58 
-0.393212 0.243417 -2.816150 59 59 59 
0.700265 0.551724 -6.383024 49 49 49 
0.717678 0.548813 -6.349340 47 47 47 
0.735874 0.546649 -6.324310 54 54 54 
0.753927 0.544503 -6.299476 53 53 53 
0.773856 0.543791 -6.291242 50 50 50 
0.794771 0.543791 -6.291242 53 53 53 
0.869565 0.565217 -6.539130 52 52 52 
0.890095 0.564451 -6.530258 46 46 46 
0.911805 0.564451 -6.530258 43 43 43 
0.933514 0.564451 -6.530258 45 45 45 
0.960437 0.567531 -6.565893 47 47 47 
0.983607 0.568306 -6.574863 41 41 41 
1.005464 0.568306 -6.574863 40 40 40 
1.025921 0.567531 -6.565893 46 46 46 
1.046322 0.566758 -6.556948 52 52 52 
1.066667 0.565986 -6.548027 52 52 52 
1.088435 0.565986 -6.548027 53 53 53 
1.108696 0.565217 -6.539130 58 58 58 
3.203931 0.511056 -5.912530 72 72 72 
3.219632 0.510429 -5.905276 72 72 72 
3.235294 0.509804 -5.898039 73 73 73 
3.266913 0.511685 -5.919803 79 79 79 
3.282555 0.511056 -5.912530 99 99 99 
2.604651 0.403101 -4.663566 100 100 100 
2.620155 0.403101 -4.663566 81 81 81 
2.635659 0.403101 -4.663566 71 71 71 
2.671875 0.406250 -4.700000 69 69 69 
2.687500 0.406250 -4.700000 88 88 88 
5.406250 0.812500 -9.400000 67 67 67 
5.437500 0.812500 -9.400000 51 51 51 
5.468750 0.812500 -9.400000 47 47 47 
5.500000 0.812500 -9.400000 48 48 48 
5.446154 0.800000 -9.255384 67 67 67 
4.450000 0.650000 -7.520000 63 63 63 
4.475000 0.650000 -7.520000 54 54 54 
5.538462 0.800000 -9.255384 60 60 60 
5.569231 0.800000 -9.255384 63 63 63 
5.687500 0.812500 -9.400000 44 44 44 
7.766578 1.103448 -12.766047 43 43 43 
7.809019 1.103448 -12.766047 49 49 49 
7.851459 1.103448 -12.766047 53 53 53 
7.750000 1.083333 -12.533333 57 57 57 
7.791667 1.083333 -12.533333 45 45 45 
-0.835165 0.274725 -3.305494 76 76 76 
-0.821918 0.273973 -3.296438 79 79 79 
-0.810404 0.273785 -3.294182 78 78 78 
-0.798906 0.273598 -3.291929 79 79 79 
-0.787423 0.273411 -3.289679 88 88 88 
-0.775427 0.273038 -3.285187 99 99 99 
-0.636725 0.227402 -2.736100 91 91 91 
-0.626561 0.227015 -2.731441 87 87 87 
-0.612613 0.225225 -2.709910 84 84 84 
-0.603604 0.225225 -2.709910 81 81 81 
-0.600000 0.227273 -2.734545 82 82 82 
-0.590238 0.227015 -2.731441 89 89 89 
-0.580170 0.226629 -2.726799 90 90 90 
-0.567568 0.225225 -2.709910 87 87 87 
-0.558559 0.225225 -2.709910 79 79 79 
-0.549550 0.225225 -2.709910 78 78 78 
-0.540541 0.225225 -2.709910 93 93 93 
-0.531532 0.225225 -2.709910 98 98 98 
-0.522523 0.225225 -2.709910 85 85 85 
-0.516129 0.226372 -2.723712 78 78 78 
-0.545932 0.262467 -3.158005 55 55 55 
-0.529183 0.259403 -3.121141 52 52 52 
-0.518471 0.259235 -3.119118 53 53 53 
-0.507115 0.258732 -3.113066 56 56 56 
-0.496124 0.258398 -3.109044 56 56 56 
-0.468828 0.249377 -3.000499 54 54 54 
-0.402339 0.233918 -2.814503 52 52 52 
-0.393212 0.234055 -2.816150 53 53 53 
-0.404190 0.246457 -2.965373 55 55 55 
0.703063 0.532623 -6.408522 47 47 47 
0.720530 0.529801 -6.374569 46 46 46 
0.738786 0.527704 -6.349340 46 46 46 
0.758893 0.527009 -6.340975 51 51 51 
0.775885 0.524246 -6.307733 56 56 56 
0.804233 0.529101 -6.366138 56 56 56 
0.846676 0.542741 -6.530258 53 53 53 
0.869565 0.543478 -6.539130 48 48 48 
0.890095 0.542741 -6.530258 46 46 46 
0.911805 0.542741 -6.530258 45 45 45 
0.933514 0.542741 -6.530258 47 47 47 
0.956522 0.543478 -6.539130 49 49 49 
0.979592 0.544218 -6.548027 42 42 42 
1.002725 0.544959 -6.556948 37 37 37 
1.024523 0.544959 -6.556948 42 42 42 
1.043478 0.543478 -6.539130 45 45 45 
1.065217 0.543478 -6.539130 50 50 50 
1.086957 0.543478 -6.539130 52 52 52 
1.108696 0.543478 -6.539130 55 55 55 
1.130435 0.543478 -6.539130 54 54 54 
3.200000 0.490798 -5.905276 79 79 79 
3.215686 0.490196 -5.898039 90 90 90 
3.231334 0.489596 -5.890820 82 82 82 
3.291202 0.495663 -5.963816 74 74 74 
3.282555 0.491400 -5.912530 95 95 95 
2.604651 0.387597 -4.663566 108 108 108 
2.620155 0.387597 -4.663566 87 87 87 
2.635659 0.387597 -4.663566 84 84 84 
2.671875 0.390625 -4.700000 70 70 70 
2.687500 0.390625 -4.700000 77 77 77 
5.406250 0.781250 -9.400000 74 74 74 
5.437500 0.781250 -9.400000 70 70 70 
5.468750 0.781250 -9.400000 58 58 58 
5.500000 0.781250 -9.400000 49 49 49 
5.446154 0.769231 -9.255384 60 60 60 
4.450000 0.625000 -7.520000 64 64 64 
4.475000 0.625000 -7.520000 55 55 55 
5.538462 0.769231 -9.255384 52 52 52 
5.569231 0.769231 -9.255384 46 46 46 
5.687500 0.781250 -9.400000 37 37 37 
7.766578 1.061008 -12.766047 35 35 35 
7.809019 1.061008 -12.766047 37 37 37 
7.851459 1.061008 -12.766047 47 47 47 
7.750000 1.041667 -12.533333 52 52 52 
7.791667 1.041667 -12.533333 41 41 41 
-0.835165 0.263736 -3.305494 79 79 79 
-0.823045 0.263374 -3.300960 79 79 79 
-0.810959 0.263014 -3.296438 78 78 78 
-0.799452 0.262834 -3.294182 79 79 79 
-0.787423 0.262474 -3.289679 89 89 89 
-0.645822 0.218306 -2.736100 92 92 92 
-0.636725 0.218306 -2.736100 88 88 88 
-0.626561 0.217934 -2.731441 86 86 86 
-0.612613 0.216216 -2.709910 80 80 80 
-0.603604 0.216216 -2.709910 80 80 80 
-0.594595 0.216216 -2.709910 82 82 82 
-0.589235 0.217564 -2.726799 87 87 87 
-0.576577 0.216216 -2.709910 89 89 89 
-0.567568 0.216216 -2.709910 84 84 84 
-0.558559 0.216216 -2.709910 76 76 76 
-0.549550 0.216216 -2.709910 76 76 76 
-0.540541 0.216216 -2.709910 92 92 92 
-0.531532 0.216216 -2.709910 98 98 98 
-0.522523 0.216216 -2.709910 79 79 79 
-0.513514 0.216216 -2.709910 67 67 67 
-0.559367 0.253298 -3.174670 53 53 53 
-0.545574 0.251803 -3.155934 45 45 45 
-0.528840 0.248866 -3.119118 43 43 43 
-0.518471 0.248866 -3.119118 43 43 43 
-0.403046 0.224956 -2.819449 41 41 41 
-0.395760 0.226148 -2.834393 42 42 42 
-0.404688 0.236891 -2.969031 45 45 45 
0.724367 0.511318 -6.408522 39 39 39 
0.744681 0.510638 -6.400000 37 37 37 
0.762914 0.508609 -6.374569 42 42 42 
0.783069 0.507937 -6.366138 50 50 50 
0.890095 0.521031 -6.530258 47 47 47 
0.911805 0.521031 -6.530258 50 50 50 
0.933514 0.521031 -6.530258 49 49 49 
0.956522 0.521739 -6.539130 52 52 52 
0.978261 0.521739 -6.539130 49 49 49 
1.000000 0.521739 -6.539130 43 43 43 
1.021739 0.521739 -6.539130 38 38 38 
1.043478 0.521739 -6.539130 39 39 39 
1.065217 0.521739 -6.539130 47 47 47 
1.086957 0.521739 -6.539130 48 48 48 
1.108696 0.521739 -6.539130 49 49 49 
3.200000 0.471166 -5.905276 87 87 87 
3.203907 0.468864 -5.876434 104 104 104 
3.219512 0.468293 -5.869268 89 89 89 
3.242979 0.468864 -5.876434 94 94 94 
3.234867 0.464891 -5.826634 86 86 86 
2.604651 0.372093 -4.663566 104 104 104 
2.620155 0.372093 -4.663566 100 100 100 
2.635659 0.372093 -4.663566 104 104 104 
2.671875 0.375000 -4.700000 77 77 77 
2.687500 0.375000 -4.700000 67 67 67 
5.406250 0.750000 -9.400000 70 70 70 
5.437500 0.750000 -9.400000 77 77 77 
5.468750 0.750000 -9.400000 65 65 65 
5.500000 0.750000 -9.400000 56 56 56 
5.446154 0.738462 -9.255384 55 55 55 
4.450000 0.600000 -7.520000 59 59 59 
4.475000 0.600000 -7.520000 64 64 64 
5.538462 0.738462 -9.255384 58 58 58 
5.569231 0.738462 -9.255384 42 42 42 
5.687500 0.750000 -9.400000 36 36 36 
7.766578 1.018568 -12.766047 39 39 39 
7.809019 1.018568 -12.766047 39 39 39 
7.851459 1.018568 -12.766047 44 44 44 
7.750000 1.000000 -12.533333 56 56 56 
7.791667 1.000000 -12.533333 44 44 44 
-0.835165 0.252747 -3.305494 72 72 72 
-0.823045 0.252401 -3.300960 69 69 69 
-0.810404 0.251882 -3.294182 66 66 66 
-0.664769 0.209448 -2.739214 62 62 62 
-0.655290 0.209329 -2.737656 68 68 68 
-0.645822 0.209210 -2.736100 73 73 73 
-0.636725 0.209210 -2.736100 71 71 71 
-0.626561 0.208854 -2.731441 69 69 69 
-0.612613 0.207207 -2.709910 64 64 64 
-0.603604 0.207207 -2.709910 65 65 65 
-0.594595 0.207207 -2.709910 65 65 65 
-0.585586 0.207207 -2.709910 64 64 64 
-0.576577 0.207207 -2.709910 64 64 64 
-0.567568 0.207207 -2.709910 60 60 60 
-0.558559 0.207207 -2.709910 62 62 62 
-0.549550 0.207207 -2.709910 74 74 74 
-0.540541 0.207207 -2.709910 90 90 90 
-0.531532 0.207207 -2.709910 95 95 95 
-0.522523 0.207207 -2.709910 64 64 64 
-0.513514 0.207207 -2.709910 47 47 47 
-0.557895 0.242105 -3.166316 40 40 40 
-0.543436 0.240366 -3.143566 38 38 38 
-0.528840 0.238496 -3.119118 37 37 37 
-0.518471 0.238496 -3.119118 35 35 35 
-0.405183 0.216726 -2.834393 37 37 37 
-0.395760 0.216726 -2.834393 40 40 40 
-0.404688 0.227020 -2.969031 43 43 43 
0.956522 0.500000 -6.539130 49 49 49 
0.978261 0.500000 -6.539130 50 50 50 
1.000000 0.500000 -6.539130 46 46 46 
1.021739 0.500000 -6.539130 39 39 39 
1.043478 0.500000 -6.539130 38 38 38 
1.065217 0.500000 -6.539130 40 40 40 
3.306123 0.469388 -6.138775 68 68 68 
3.301266 0.465823 -6.092152 85 85 85 
3.203907 0.449328 -5.876434 107 107 107 
3.203883 0.446602 -5.840776 92 92 92 
3.219394 0.446061 -5.833697 99 99 99 
3.219277 0.443374 -5.798554 88 88 88 
2.604651 0.356589 -4.663566 86 86 86 
2.620155 0.356589 -4.663566 99 99 99 
2.635659 0.356589 -4.663566 122 122 122 
2.671875 0.359375 -4.700000 88 88 88 
2.687500 0.359375 -4.700000 58 58 58 
5.406250 0.718750 -9.400000 59 59 59 
5.437500 0.718750 -9.400000 71 71 71 
5.468750 0.718750 -9.400000 61 61 61 
5.500000 0.718750 -9.400000 59 59 59 
5.446154 0.707692 -9.255384 59 59 59 
4.450000 0.575000 -7.520000 53 53 53 
4.475000 0.575000 -7.520000 60 60 60 
5.538462 0.707692 -9.255384 68 68 68 
5.569231 0.707692 -9.255384 54 54 54 
5.687500 0.718750 -9.400000 37 37 37 
7.766578 0.976127 -12.766047 41 41 41 
7.809019 0.976127 -12.766047 41 41 41 
7.851459 0.976127 -12.766047 37 37 37 
7.750000 0.958333 -12.533333 45 45 45 
7.791667 0.958333 -12.533333 45 45 45 
-0.835165 0.241758 -3.305494 53 53 53 
-0.823045 0.241427 -3.300960 52 52 52 
-0.673876 0.200341 -2.739214 49 49 49 
-0.664769 0.200341 -2.739214 49 49 49 
-0.654918 0.200114 -2.736100 55 55 55 
-0.645822 0.200114 -2.736100 60 60 60 
-0.636725 0.200114 -2.736100 50 50 50 
-0.626561 0.199773 -2.731441 50 50 50 
-0.612613 0.198198 -2.709910 48 48 48 
-0.603604 0.198198 -2.709910 46 46 46 
-0.594595 0.198198 -2.709910 45 45 45 
-0.585586 0.198198 -2.709910 44 44 44 
-0.576577 0.198198 -2.709910 43 43 43 
-0.567568 0.198198 -2.709910 42 42 42 
-0.558559 0.198198 -2.709910 51 51 51 
-0.549550 0.198198 -2.709910 71 71 71 
-0.540541 0.198198 -2.709910 88 88 88 
-0.531532 0.198198 -2.709910 94 94 94 
-0.522523 0.198198 -2.709910 60 60 60 
-0.513514 0.198198 -2.709910 39 39 39 
-0.570674 0.232497 -3.178864 36 36 36 
-0.556796 0.231123 -3.160079 36 36 36 
-0.543436 0.229915 -3.143566 35 35 35 
-0.529870 0.228571 -3.125195 34 34 34 
-0.519481 0.228571 -3.125195 33 33 33 
-0.414605 0.207303 -2.834393 39 39 39 
-0.405183 0.207303 -2.834393 41 41 41 
3.281529 0.448408 -6.130955 97 97 97 
3.301911 0.448408 -6.130955 65 65 65 
3.301266 0.445570 -6.092152 80 80 80 
3.203907 0.429792 -5.876434 113 113 113 
3.200000 0.426667 -5.833697 105 105 105 
3.215496 0.426150 -5.826634 101 101 101 
3.215403 0.423586 -5.791576 98 98 98 
2.604651 0.341085 -4.663566 74 74 74 
2.620155 0.341085 -4.663566 79 79 79 
2.635659 0.341085 -4.663566 107 107 107 
2.671875 0.343750 -4.700000 88 88 88 
2.687500 0.343750 -4.700000 54 54 54 
5.406250 0.687500 -9.400000 52 52 52 
5.437500 0.687500 -9.400000 64 64 64 
5.468750 0.687500 -9.400000 56 56 56 
5.500000 0.687500 -9.400000 57 57 57 
5.446154 0.676923 -9.255384 57 57 57 
4.450000 0.550000 -7.520000 52 52 52 
4.475000 0.550000 -7.520000 53 53 53 
5.538462 0.676923 -9.255384 58 58 58 
5.569231 0.676923 -9.255384 64 64 64 
5.687500 0.687500 -9.400000 54 54 54 
7.766578 0.933687 -12.766047 46 46 46 
7.809019 0.933687 -12.766047 37 37 37 
7.851459 0.933687 -12.766047 34 34 34 
7.750000 0.916667 -12.533333 38 38 38 
7.791667 0.916667 -12.533333 45 45 45 
-0.683761 0.191453 -2.742336 44 44 44 
-0.673876 0.191235 -2.739214 43 43 43 
-0.664769 0.191235 -2.739214 43 43 43 
-0.655290 0.191126 -2.737656 49 49 49 
-0.645822 0.191018 -2.736100 57 57 57 
-0.636725 0.191018 -2.736100 44 44 44 
-0.626561 0.190692 -2.731441 43 43 43 
-0.612613 0.189189 -2.709910 43 43 43 
-0.603604 0.189189 -2.709910 42 42 42 
-0.594595 0.189189 -2.709910 41 41 41 
-0.585586 0.189189 -2.709910 41 41 41 
-0.576577 0.189189 -2.709910 38 38 38 
-0.567568 0.189189 -2.709910 38 38 38 
-0.558559 0.189189 -2.709910 47 47 47 
-0.549550 0.189189 -2.709910 69 69 69 
-0.540541 0.189189 -2.709910 87 87 87 
-0.531532 0.189189 -2.709910 95 95 95 
-0.522523 0.189189 -2.709910 62 62 62 
-0.513514 0.189189 -2.709910 40 40 40 
-0.570674 0.221929 -3.178864 40 40 40 
-0.556796 0.220617 -3.160079 40 40 40 
-0.543081 0.219321 -3.141514 40 40 40 
-0.529870 0.218182 -3.125195 37 37 37 
-0.519481 0.218182 -3.125195 38 38 38 
-0.423529 0.197647 -2.831059 68 68 68 
-0.414118 0.197647 -2.831059 62 62 62 
-0.405183 0.197880 -2.834393 67 67 67 
3.277354 0.427481 -6.123155 94 94 94 
3.297710 0.427481 -6.123155 86 86 86 
3.301266 0.425316 -6.092152 88 88 88 
3.203907 0.410256 -5.876434 124 124 124 
3.200000 0.407273 -5.833697 117 117 117 
3.207730 0.405797 -5.812560 115 115 115 
3.207683 0.403361 -5.777671 104 104 104 
2.604651 0.325581 -4.663566 82 82 82 
2.620155 0.325581 -4.663566 76 76 76 
2.635659 0.325581 -4.663566 101 101 101 
2.671875 0.328125 -4.700000 84 84 84 
2.687500 0.328125 -4.700000 52 52 52 
5.406250 0.656250 -9.400000 50 50 50 
5.437500 0.656250 -9.400000 63 63 63 
5.468750 0.656250 -9.400000 61 61 61 
5.500000 0.656250 -9.400000 57 57 57 
5.446154 0.646154 -9.255384 51 51 51 
4.450000 0.525000 -7.520000 49 49 49 
4.475000 0.525000 -7.520000 47 47 47 
5.538462 0.646154 -9.255384 43 43 43 
5.569231 0.646154 -9.255384 53 53 53 
5.687500 0.656250 -9.400000 63 63 63 
7.766578 0.891247 -12.766047 57 57 57 
7.809019 0.891247 -12.766047 41 41 41 
7.851459 0.891247 -12.766047 35 35 35 
7.750000 0.875000 -12.533333 38 38 38 
7.791667 0.875000 -12.533333 40 40 40 
-0.683761 0.182336 -2.742336 38 38 38 
-0.674260 0.182232 -2.740774 39 39 39 
-0.664769 0.182129 -2.739214 39 39 39 
-0.655663 0.182129 -2.739214 47 47 47 
-0.646189 0.182025 -2.737656 56 56 56 
-0.636725 0.181922 -2.736100 48 48 48 
-0.626561 0.181612 -2.731441 49 49 49 
-0.612613 0.180180 -2.709910 53 53 53 
-0.603604 0.180180 -2.709910 57 57 57 
-0.594595 0.180180 -2.709910 59 59 59 
-0.585586 0.180180 -2.709910 57 57 57 
-0.576577 0.180180 -2.709910 50 50 50 
-0.567568 0.180180 -2.709910 49 49 49 
-0.558559 0.180180 -2.709910 58 58 58 
-0.549550 0.180180 -2.709910 71 71 71 
-0.540541 0.180180 -2.709910 88 88 88 
-0.531532 0.180180 -2.709910 97 97 97 
-0.522523 0.180180 -2.709910 79 79 79 
-0.568795 0.210665 -3.168400 60 60 60 
-0.556066 0.209836 -3.155934 62 62 62 
-0.542373 0.208605 -3.137418 61 61 61 
-0.529870 0.207792 -3.125195 59 59 59 
-0.519481 0.207792 -3.125195 61 61 61 
-0.423032 0.188014 -2.827732 91 91 91 
-0.412661 0.187573 -2.821102 87 87 87 
3.265306 0.408163 -6.138775 82 82 82 
3.277354 0.407125 -6.123155 90 90 90 
3.297710 0.407125 -6.123155 108 108 108 
3.301266 0.405063 -6.092152 94 94 94 
3.192214 0.389294 -5.854988 116 116 116 
3.188406 0.386473 -5.812560 108 108 108 
3.192308 0.384615 -5.784615 113 113 113 
3.200000 0.383234 -5.763832 116 116 116 
2.604651 0.310078 -4.663566 85 85 85 
2.620155 0.310078 -4.663566 70 70 70 
2.635659 0.310078 -4.663566 84 84 84 
2.671875 0.312500 -4.700000 71 71 71 
2.687500 0.312500 -4.700000 46 46 46 
5.406250 0.625000 -9.400000 49 49 49 
5.437500 0.625000 -9.400000 65 65 65 
5.468750 0.625000 -9.400000 69 69 69 
5.500000 0.625000 -9.400000 57 57 57 
5.446154 0.615385 -9.255384 47 47 47 
4.450000 0.500000 -7.520000 46 46 46 
4.475000 0.500000 -7.520000 46 46 46 
5.538462 0.615385 -9.255384 41 41 41 
5.569231 0.615385 -9.255384 43 43 43 
5.687500 0.625000 -9.400000 51 51 51 
7.766578 0.848806 -12.766047 61 61 61 
7.809019 0.848806 -12.766047 58 58 58 
7.851459 0.848806 -12.766047 42 42 42 
7.750000 0.833333 -12.533333 37 37 37 
7.791667 0.833333 -12.533333 37 37 37 
-0.683761 0.173219 -2.742336 50 50 50 
-0.674644 0.173219 -2.742336 51 51 51 
-0.665148 0.173121 -2.740774 54 54 54 
-0.656036 0.173121 -2.740774 66 66 66 
-0.646557 0.173022 -2.739214 77 77 77 
-0.637088 0.172924 -2.737656 81 81 81 
-0.626561 0.172531 -2.731441 88 88 88 
-0.612613 0.171171 -2.709910 91 91 91 
-0.603604 0.171171 -2.709910 85 85 85 
-0.594595 0.171171 -2.709910 81 81 81 
-0.585586 0.171171 -2.709910 82 82 82 
-0.576577 0.171171 -2.709910 78 78 78 
-0.567568 0.171171 -2.709910 76 76 76 
-0.558559 0.171171 -2.709910 79 79 79 
-0.549550 0.171171 -2.709910 76 76 76 
-0.540541 0.171171 -2.709910 84 84 84 
-0.531532 0.171171 -2.709910 88 88 88 
-0.637363 0.208791 -3.305494 83 83 83 
-0.602327 0.208077 -3.294182 75 75 75 
-0.568047 0.199869 -3.164234 70 70 70 
-0.556066 0.199344 -3.155934 71 71 71 
-0.544859 0.199083 -3.151801 73 73 73 
-0.531250 0.197917 -3.133333 73 73 73 
-0.423032 0.178613 -2.827732 89 89 89 
-0.412419 0.178090 -2.819449 90 90 90 
-0.403283 0.178195 -2.821102 92 92 92 
0.279279 0.171171 -2.709910 37 37 37 
0.288288 0.171171 -2.709910 41 41 41 
0.297297 0.171171 -2.709910 46 46 46 
0.306306 0.171171 -2.709910 49 49 49 
0.315315 0.171171 -2.709910 48 48 48 
0.360360 0.171171 -2.709910 47 47 47 
0.369369 0.171171 -2.709910 49 49 49 
3.265306 0.387755 -6.138775 70 70 70 
3.285714 0.387755 -6.138775 95 95 95 
3.169082 0.367150 -5.812560 107 107 107 
3.173077 0.365385 -5.784615 100 100 100 
3.180838 0.364072 -5.763832 107 107 107 
3.188544 0.362769 -5.743198 117 117 117 
2.604651 0.294574 -4.663566 84 84 84 
2.620155 0.294574 -4.663566 72 72 72 
2.635659 0.294574 -4.663566 73 73 73 
2.671875 0.296875 -4.700000 56 56 56 
2.687500 0.296875 -4.700000 43 43 43 
5.406250 0.593750 -9.400000 49 49 49 
5.437500 0.593750 -9.400000 65 65 65 
5.468750 0.593750 -9.400000 74 74 74 
5.500000 0.593750 -9.400000 60 60 60 
5.446154 0.584615 -9.255384 50 50 50 
4.450000 0.475000 -7.520000 50 50 50 
4.475000 0.475000 -7.520000 45 45 45 
5.538462 0.584615 -9.255384 41 41 41 
5.569231 0.584615 -9.255384 44 44 44 
5.687500 0.593750 -9.400000 47 47 47 
7.766578 0.806366 -12.766047 50 50 50 
7.809019 0.806366 -12.766047 59 59 59 
7.851459 0.806366 -12.766047 56 56 56 
7.750000 0.791667 -12.533333 40 40 40 
7.791667 0.791667 -12.533333 35 35 35 
-0.683761 0.164103 -2.742336 74 74 74 
-0.674644 0.164103 -2.742336 73 73 73 
-0.665148 0.164009 -2.740774 72 72 72 
-0.656036 0.164009 -2.740774 77 77 77 
-0.646557 0.163916 -2.739214 79 79 79 
-0.637450 0.163916 -2.739214 81 81 81 
-0.626917 0.163543 -2.732992 81 81 81 
-0.612613 0.162162 -2.709910 79 79 79 
-0.603604 0.162162 -2.709910 74 74 74 
-0.594595 0.162162 -2.709910 72 72 72 
-0.585586 0.162162 -2.709910 71 71 71 
-0.576577 0.162162 -2.709910 70 70 70 
-0.567568 0.162162 -2.709910 69 69 69 
-0.558559 0.162162 -2.709910 68 68 68 
-0.549550 0.162162 -2.709910 67 67 67 
-0.540541 0.162162 -2.709910 67 67 67 
-0.531532 0.162162 -2.709910 69 69 69 
-0.637363 0.197802 -3.305494 70 70 70 
-0.615385 0.197802 -3.305494 70 70 70 
-0.600273 0.196453 -3.282947 69 69 69 
-0.568047 0.189349 -3.164234 66 66 66 
-0.557162 0.189225 -3.162155 68 68 68 
-0.545216 0.188729 -3.153866 72 72 72 
-0.421793 0.168717 -2.819449 88 88 88 
-0.411696 0.168421 -2.814503 91 91 91 
-0.402810 0.168618 -2.817798 95 95 95 
0.270270 0.162162 -2.709910 45 45 45 
0.279279 0.162162 -2.709910 49 49 49 
0.288288 0.162162 -2.709910 52 52 52 
0.297297 0.162162 -2.709910 57 57 57 
0.306306 0.162162 -2.709910 60 60 60 
0.315315 0.162162 -2.709910 56 56 56 
0.324324 0.162162 -2.709910 54 54 54 
0.351351 0.162162 -2.709910 56 56 56 
0.360360 0.162162 -2.709910 56 56 56 
0.369369 0.162162 -2.709910 58 58 58 
0.378378 0.162162 -2.709910 57 57 57 
3.153846 0.346154 -5.784615 86 86 86 
3.161677 0.344910 -5.763832 90 90 90 
3.177033 0.344498 -5.756938 97 97 97 
3.184744 0.343266 -5.736352 101 101 101 
2.604651 0.279070 -4.663566 76 76 76 
2.620155 0.279070 -4.663566 66 66 66 
2.635659 0.279070 -4.663566 75 75 75 
2.671875 0.281250 -4.700000 58 58 58 
2.687500 0.281250 -4.700000 45 45 45 
5.406250 0.562500 -9.400000 50 50 50 
5.437500 0.562500 -9.400000 64 64 64 
5.468750 0.562500 -9.400000 77 77 77 
5.500000 0.562500 -9.400000 60 60 60 
5.446154 0.553846 -9.255384 47 47 47 
4.450000 0.450000 -7.520000 48 48 48 
4.475000 0.450000 -7.520000 42 42 42 
5.538462 0.553846 -9.255384 42 42 42 
5.569231 0.553846 -9.255384 43 43 43 
5.687500 0.562500 -9.400000 49 49 49 
7.766578 0.763926 -12.766047 45 45 45 
7.809019 0.763926 -12.766047 44 44 44 
7.851459 0.763926 -12.766047 50 50 50 
7.750000 0.750000 -12.533333 48 48 48 
7.791667 0.750000 -12.533333 44 44 44 
-0.683761 0.154986 -2.742336 65 65 65 
-0.674644 0.154986 -2.742336 62 62 62 
-0.665527 0.154986 -2.742336 60 60 60 
-0.656036 0.154897 -2.740774 62 62 62 
-0.646925 0.154897 -2.740774 63 63 63 
-0.637450 0.154809 -2.739214 65 65 65 
-0.627273 0.154545 -2.734545 67 67 67 
-0.612613 0.153153 -2.709910 68 68 68 
-0.603604 0.153153 -2.709910 66 66 66 
-0.594595 0.153153 -2.709910 65 65 65 
-0.585586 0.153153 -2.709910 66 66 66 
-0.576577 0.153153 -2.709910 70 70 70 
-0.567568 0.153153 -2.709910 72 72 72 
-0.558559 0.153153 -2.709910 70 70 70 
-0.549550 0.153153 -2.709910 70 70 70 
-0.540541 0.153153 -2.709910 71 71 71 
-0.531532 0.153153 -2.709910 74 74 74 
-0.637363 0.186813 -3.305494 79 79 79 
-0.626374 0.186813 -3.305494 80 80 80 
-0.613279 0.186174 -3.294182 80 80 80 
-0.600273 0.185539 -3.282947 79 79 79 
-0.588957 0.185412 -3.280709 77 77 77 
-0.420315 0.158786 -2.809574 100 100 100 
-0.410975 0.158786 -2.809574 101 101 101 
-0.401635 0.158786 -2.809574 103 103 103 
-0.393443 0.159251 -2.817798 103 103 103 
0.270270 0.153153 -2.709910 58 58 58 
0.279279 0.153153 -2.709910 60 60 60 
0.288288 0.153153 -2.709910 63 63 63 
0.297297 0.153153 -2.709910 63 63 63 
0.306306 0.153153 -2.709910 60 60 60 
0.315315 0.153153 -2.709910 60 60 60 
0.324324 0.153153 -2.709910 65 65 65 
0.356197 0.163658 -2.895788 64 64 64 
0.365824 0.163658 -2.895788 60 60 60 
0.351351 0.153153 -2.709910 63 63 63 
0.360360 0.153153 -2.709910 65 65 65 
0.369369 0.153153 -2.709910 63 63 63 
0.406534 0.164549 -2.911555 57 57 57 
3.153567 0.328900 -5.819589 85 85 85 
3.142515 0.325749 -5.763832 71 71 71 
3.157895 0.325359 -5.756938 77 77 77 
3.169451 0.324582 -5.743198 82 82 82 
3.184744 0.324195 -5.736352 95 95 95 
2.604651 0.263566 -4.663566 77 77 77 
2.620155 0.263566 -4.663566 55 55 55 
2.635659 0.263566 -4.663566 61 61 61 
2.671875 0.265625 -4.700000 56 56 56 
2.687500 0.265625 -4.700000 49 49 49 
5.406250 0.531250 -9.400000 51 51 51 
5.437500 0.531250 -9.400000 62 62 62 
5.468750 0.531250 -9.400000 78 78 78 
5.500000 0.531250 -9.400000 61 61 61 
5.446154 0.523077 -9.255384 42 42 42 
4.450000 0.425000 -7.520000 40 40 40 
4.475000 0.425000 -7.520000 40 40 40 
5.538462 0.523077 -9.255384 45 45 45 
5.569231 0.523077 -9.255384 43 43 43 
5.687500 0.531250 -9.400000 45 45 45 
7.766578 0.721485 -12.766047 41 41 41 
7.809019 0.721485 -12.766047 35 35 35 
7.851459 0.721485 -12.766047 38 38 38 
7.750000 0.708333 -12.533333 44 44 44 
7.791667 0.708333 -12.533333 57 57 57 
-0.683761 0.145869 -2.742336 68 68 68 
-0.674644 0.145869 -2.742336 64 64 64 
-0.665148 0.145786 -2.740774 63 63 63 
-0.656036 0.145786 -2.740774 67 67 67 
-0.646925 0.145786 -2.740774 72 72 72 
-0.637450 0.145703 -2.739214 74 74 74 
-0.627273 0.145455 -2.734545 77 77 77 
-0.612613 0.144144 -2.709910 79 79 79 
-0.603604 0.144144 -2.709910 75 75 75 
-0.594595 0.144144 -2.709910 73 73 73 
-0.585586 0.144144 -2.709910 77 77 77 
-0.576577 0.144144 -2.709910 83 83 83 
-0.567568 0.144144 -2.709910 89 89 89 
-0.558559 0.144144 -2.709910 86 86 86 
-0.549550 0.144144 -2.709910 83 83 83 
-0.540541 0.144144 -2.709910 85 85 85 
-0.531532 0.144144 -2.709910 90 90 90 
-0.637363 0.175824 -3.305494 97 97 97 
-0.626374 0.175824 -3.305494 99 99 99 
-0.615385 0.175824 -3.305494 98 98 98 
-0.602740 0.175342 -3.296438 99 99 99 
-0.429656 0.149445 -2.809574 115 115 115 
-0.419825 0.149271 -2.806297 112 112 112 
-0.410735 0.149358 -2.807935 111 111 111 
-0.401635 0.149445 -2.809574 110 110 110 
-0.392294 0.149445 -2.809574 105 105 105 
0.270270 0.144144 -2.709910 58 58 58 
0.279279 0.144144 -2.709910 58 58 58 
0.288288 0.144144 -2.709910 59 59 59 
0.297297 0.144144 -2.709910 51 51 51 
0.306306 0.144144 -2.709910 49 49 49 
0.315315 0.144144 -2.709910 54 54 54 
0.324324 0.144144 -2.709910 57 57 57 
0.356412 0.154124 -2.897532 58 58 58 
0.365824 0.154031 -2.895788 59 59 59 
0.375451 0.154031 -2.895788 63 63 63 
0.385078 0.154031 -2.895788 65 65 65 
0.394705 0.154031 -2.895788 62 62 62 
0.406288 0.154776 -2.909794 53 53 53 
0.416970 0.155152 -2.916848 48 48 48 
3.153567 0.309553 -5.819589 74 74 74 
3.146283 0.306954 -5.770743 68 68 68 
3.154122 0.305854 -5.750060 71 71 71 
3.173238 0.305854 -5.750060 80 80 80 
3.184744 0.305125 -5.736352 88 88 88 
2.604651 0.248062 -4.663566 74 74 74 
2.620155 0.248062 -4.663566 54 54 54 
2.635659 0.248062 -4.663566 46 46 46 
2.671875 0.250000 -4.700000 45 45 45 
2.687500 0.250000 -4.700000 45 45 45 
5.406250 0.500000 -9.400000 49 49 49 
5.437500 0.500000 -9.400000 59 59 59 
5.468750 0.500000 -9.400000 78 78 78 
5.500000 0.500000 -9.400000 66 66 66 
5.446154 0.492308 -9.255384 42 42 42 
4.450000 0.400000 -7.520000 39 39 39 
4.475000 0.400000 -7.520000 43 43 43 
5.538462 0.492308 -9.255384 43 43 43 
5.569231 0.492308 -9.255384 38 38 38 
5.687500 0.500000 -9.400000 40 40 40 
7.766578 0.679045 -12.766047 37 37 37 
7.809019 0.679045 -12.766047 34 34 34 
7.851459 0.679045 -12.766047 34 34 34 
7.750000 0.666667 -12.533333 35 35 35 
7.791667 0.666667 -12.533333 46 46 46 
-0.683761 0.136752 -2.742336 85 85 85 
-0.674644 0.136752 -2.742336 81 81 81 
-0.665148 0.136674 -2.740774 81 81 81 
-0.656036 0.136674 -2.740774 84 84 84 
-0.646925 0.136674 -2.740774 90 90 90 
-0.637450 0.136596 -2.739214 92 92 92 
-0.627273 0.136364 -2.734545 95 95 95 
-0.612613 0.135135 -2.709910 94 94 94 
-0.603604 0.135135 -2.709910 90 90 90 
-0.594595 0.135135 -2.709910 90 90 90 
-0.585586 0.135135 -2.709910 94 94 94 
-0.576577 0.135135 -2.709910 95 95 95 
-0.567568 0.135135 -2.709910 98 98 98 
-0.558559 0.135135 -2.709910 97 97 97 
-0.549550 0.135135 -2.709910 93 93 93 
-0.540541 0.135135 -2.709910 97 97 97 
-0.531532 0.135135 -2.709910 97 97 97 
-0.522523 0.135135 -2.709910 103 103 103 
-0.624230 0.164271 -3.294182 105 105 105 
-0.613279 0.164271 -3.294182 103 103 103 
-0.602327 0.164271 -3.294182 103 103 103 
-0.429656 0.140105 -2.809574 83 83 83 
-0.419825 0.139942 -2.806297 86 86 86 
-0.410735 0.140023 -2.807935 89 89 89 
-0.401635 0.140105 -2.809574 88 88 88 
-0.392294 0.140105 -2.809574 87 87 87 
-0.382954 0.140105 -2.809574 89 89 89 
0.270270 0.135135 -2.709910 48 48 48 
0.279279 0.135135 -2.709910 50 50 50 
0.288288 0.135135 -2.709910 50 50 50 
0.297297 0.135135 -2.709910 43 43 43 
0.306306 0.135135 -2.709910 43 43 43 
0.315315 0.135135 -2.709910 49 49 49 
0.346779 0.144491 -2.897532 53 53 53 
0.356412 0.144491 -2.897532 54 54 54 
0.365824 0.144404 -2.895788 54 54 54 
0.375451 0.144404 -2.895788 56 56 56 
0.385078 0.144404 -2.895788 56 56 56 
0.394943 0.144491 -2.897532 56 56 56 
0.405552 0.144840 -2.904526 54 54 54 
0.416213 0.145191 -2.911555 49 49 49 
0.426667 0.145455 -2.916848 42 42 42 
1.932157 0.325644 -6.530258 46 46 46 
1.953867 0.325644 -6.530258 47 47 47 
1.978261 0.326087 -6.539130 45 45 45 
3.281529 0.305732 -6.130955 84 84 84 
3.289340 0.304569 -6.107614 91 91 91 
3.149758 0.289855 -5.812560 72 72 72 
3.142515 0.287425 -5.763832 67 67 67 
3.150358 0.286396 -5.743198 64 64 64 
3.169451 0.286396 -5.743198 72 72 72 
2.589147 0.232558 -4.663566 74 74 74 
2.604651 0.232558 -4.663566 63 63 63 
2.620155 0.232558 -4.663566 50 50 50 
2.635659 0.232558 -4.663566 43 43 43 
2.671875 0.234375 -4.700000 42 42 42 
2.687500 0.234375 -4.700000 43 43 43 
5.406250 0.468750 -9.400000 43 43 43 
5.437500 0.468750 -9.400000 49 49 49 
5.468750 0.468750 -9.400000 70 70 70 
5.500000 0.468750 -9.400000 70 70 70 
5.446154 0.461538 -9.255384 46 46 46 
4.450000 0.375000 -7.520000 46 46 46 
4.475000 0.375000 -7.520000 48 48 48 
5.538462 0.461538 -9.255384 40 40 40 
5.569231 0.461538 -9.255384 35 35 35 
5.687500 0.468750 -9.400000 39 39 39 
7.766578 0.636605 -12.766047 37 37 37 
7.809019 0.636605 -12.766047 38 38 38 
7.851459 0.636605 -12.766047 38 38 38 
7.750000 0.625000 -12.533333 33 33 33 
7.791667 0.625000 -12.533333 35 35 35 
-0.684151 0.127708 -2.743900 97 97 97 
-0.674644 0.127635 -2.742336 95 95 95 
-0.665527 0.127635 -2.742336 97 97 97 
-0.656410 0.127635 -2.742336 98 98 98 
-0.646925 0.127563 -2.740774 100 100 100 
-0.637813 0.127563 -2.740774 100 100 100 
-0.627629 0.127345 -2.736100 96 96 96 
-0.612613 0.126126 -2.709910 91 91 91 
-0.603604 0.126126 -2.709910 89 89 89 
-0.594595 0.126126 -2.709910 91 91 91 
-0.585586 0.126126 -2.709910 90 90 90 
-0.576577 0.126126 -2.709910 87 87 87 
-0.567568 0.126126 -2.709910 84 84 84 
-0.558559 0.126126 -2.709910 82 82 82 
-0.549550 0.126126 -2.709910 80 80 80 
-0.540541 0.126126 -2.709910 79 79 79 
-0.531532 0.126126 -2.709910 78 78 78 
-0.522523 0.126126 -2.709910 79 79 79 
-0.513514 0.126126 -2.709910 79 79 79 
-0.504505 0.126126 -2.709910 74 74 74 
-0.495495 0.126126 -2.709910 70 70 70 
-0.486486 0.126126 -2.709910 70 70 70 
-0.551007 0.145549 -3.127225 69 69 69 
-0.540611 0.145549 -3.127225 68 68 68 
-0.420070 0.130688 -2.807935 69 69 69 
-0.410735 0.130688 -2.807935 76 76 76 
-0.401635 0.130765 -2.809574 77 77 77 
-0.392294 0.130765 -2.809574 77 77 77 
-0.382954 0.130765 -2.809574 82 82 82 
-0.187408 0.163982 -3.523279 134 134 134 
0.270270 0.126126 -2.709910 45 45 45 
0.279279 0.126126 -2.709910 45 45 45 
0.288288 0.126126 -2.709910 46 46 46 
0.297297 0.126126 -2.709910 43 43 43 
0.306306 0.126126 -2.709910 41 41 41 
0.315315 0.126126 -2.709910 46 46 46 
0.346779 0.134859 -2.897532 49 49 49 
0.356412 0.134859 -2.897532 49 49 49 
0.366045 0.134859 -2.897532 48 48 48 
0.375451 0.134777 -2.895788 48 48 48 
0.385078 0.134777 -2.895788 47 47 47 
0.394705 0.134777 -2.895788 48 48 48 
0.404576 0.134859 -2.897532 48 48 48 
0.415208 0.135184 -2.904526 45 45 45 
0.425892 0.135511 -2.911555 38 38 38 
0.436364 0.135758 -2.916848 39 39 39 
1.910448 0.303935 -6.530258 44 44 44 
1.929539 0.303523 -6.521409 43 43 43 
1.951220 0.303523 -6.521409 43 43 43 
1.972900 0.303523 -6.521409 42 42 42 
2.000000 0.304348 -6.539130 42 42 42 
3.261147 0.285350 -6.130955 61 61 61 
3.273189 0.284625 -6.115375 66 66 66 
3.289340 0.284264 -6.107614 66 66 66 
3.138387 0.269555 -5.791576 63 63 63 
2.006116 0.171254 -3.679511 64 64 64 
2.018349 0.171254 -3.679511 54 54 54 
2.029030 0.171123 -3.676700 54 54 54 
2.589147 0.217054 -4.663566 57 57 57 
2.604651 0.217054 -4.663566 52 52 52 
2.620155 0.217054 -4.663566 44 44 44 
2.635659 0.217054 -4.663566 43 43 43 
2.671875 0.218750 -4.700000 44 44 44 
2.687500 0.218750 -4.700000 47 47 47 
5.406250 0.437500 -9.400000 42 42 42 
5.437500 0.437500 -9.400000 44 44 44 
5.468750 0.437500 -9.400000 66 66 66 
5.500000 0.437500 -9.400000 70 70 70 
5.446154 0.430769 -9.255384 48 48 48 
4.450000 0.350000 -7.520000 47 47 47 
4.475000 0.350000 -7.520000 48 48 48 
5.538462 0.430769 -9.255384 41 41 41 
5.569231 0.430769 -9.255384 42 42 42 
5.687500 0.437500 -9.400000 41 41 41 
7.766578 0.594164 -12.766047 36 36 36 
7.809019 0.594164 -12.766047 40 40 40 
7.851459 0.594164 -12.766047 41 41 41 
7.750000 0.583333 -12.533333 36 36 36 
7.791667 0.583333 -12.533333 40 40 40 
-0.742115 0.128633 -2.976376 80 80 80 
-0.675029 0.118586 -2.743900 78 78 78 
-0.665906 0.118586 -2.743900 77 77 77 
-0.656784 0.118586 -2.743900 75 75 75 
-0.647293 0.118519 -2.742336 73 73 73 
-0.637813 0.118451 -2.740774 71 71 71 
-0.627629 0.118249 -2.736100 68 68 68 
-0.612613 0.117117 -2.709910 65 65 65 
-0.603604 0.117117 -2.709910 64 64 64 
-0.594595 0.117117 -2.709910 64 64 64 
-0.585586 0.117117 -2.709910 62 62 62 
-0.576577 0.117117 -2.709910 62 62 62 
-0.567568 0.117117 -2.709910 63 63 63 
-0.558559 0.117117 -2.709910 61 61 61 
-0.549550 0.117117 -2.709910 60 60 60 
-0.540541 0.117117 -2.709910 60 60 60 
-0.531532 0.117117 -2.709910 64 64 64 
-0.522523 0.117117 -2.709910 66 66 66 
-0.513514 0.117117 -2.709910 68 68 68 
-0.504505 0.117117 -2.709910 64 64 64 
-0.495495 0.117117 -2.709910 61 61 61 
-0.486486 0.117117 -2.709910 63 63 63 
-0.477477 0.117117 -2.709910 66 66 66 
-0.537815 0.134454 -3.111053 64 64 64 
-0.529870 0.135065 -3.125195 59 59 59 
-0.420070 0.121354 -2.807935 76 76 76 
-0.410735 0.121354 -2.807935 85 85 85 
-0.401635 0.121424 -2.809574 85 85 85 
-0.392294 0.121424 -2.809574 85 85 85 
-0.382954 0.121424 -2.809574 92 92 92 
-0.198685 0.151936 -3.515559 133 133 133 
-0.185911 0.151053 -3.495134 133 133 133 
-0.174039 0.150834 -3.490065 132 132 132 
-0.161383 0.149856 -3.467435 128 128 128 
0.261261 0.117117 -2.709910 46 46 46 
0.270270 0.117117 -2.709910 43 43 43 
0.279279 0.117117 -2.709910 43 43 43 
0.288288 0.117117 -2.709910 44 44 44 
0.297297 0.117117 -2.709910 43 43 43 
0.306306 0.117117 -2.709910 44 44 44 
0.315315 0.117117 -2.709910 45 45 45 
0.346988 0.125301 -2.899277 46 46 46 
0.356627 0.125301 -2.899277 45 45 45 
0.366045 0.125226 -2.897532 41 41 41 
0.375451 0.125150 -2.895788 41 41 41 
0.385078 0.125150 -2.895788 44 44 44 
0.394705 0.125150 -2.895788 45 45 45 
0.404576 0.125226 -2.897532 42 42 42 
0.414958 0.125452 -2.902774 41 41 41 
0.425378 0.125680 -2.908036 41 41 41 
0.435572 0.125832 -2.911555 44 44 44 
1.876011 0.280323 -6.486253 44 44 44 
1.900135 0.280702 -6.495007 43 43 43 
1.929539 0.281843 -6.521409 43 43 43 
1.951220 0.281843 -6.521409 44 44 44 
1.972900 0.281843 -6.521409 45 45 45 
1.997286 0.282225 -6.530258 46 46 46 
2.021739 0.282609 -6.539130 49 49 49 
3.252859 0.264295 -6.115375 56 56 56 
3.269036 0.263959 -6.107614 64 64 64 
3.276865 0.262958 -6.084450 64 64 64 
3.292929 0.262626 -6.076767 59 59 59 
2.006116 0.159021 -3.679511 59 59 59 
2.018349 0.159021 -3.679511 49 49 49 
2.027481 0.158779 -3.673893 46 46 46 
2.039695 0.158779 -3.673893 49 49 49 
2.604651 0.201550 -4.663566 48 48 48 
2.620155 0.201550 -4.663566 42 42 42 
2.635659 0.201550 -4.663566 45 45 45 
2.671875 0.203125 -4.700000 47 47 47 
2.687500 0.203125 -4.700000 47 47 47 
5.406250 0.406250 -9.400000 41 41 41 
5.437500 0.406250 -9.400000 44 44 44 
5.468750 0.406250 -9.400000 52 52 52 
5.500000 0.406250 -9.400000 52 52 52 
5.446154 0.400000 -9.255384 49 49 49 
4.450000 0.325000 -7.520000 54 54 54 
4.475000 0.325000 -7.520000 49 49 49 
5.538462 0.400000 -9.255384 50 50 50 
5.569231 0.400000 -9.255384 51 51 51 
5.687500 0.406250 -9.400000 41 41 41 
7.766578 0.551724 -12.766047 34 34 34 
7.809019 0.551724 -12.766047 37 37 37 
7.851459 0.551724 -12.766047 39 39 39 
7.750000 0.541667 -12.533333 47 47 47 
7.791667 0.541667 -12.533333 56 56 56 
-0.753875 0.119033 -2.983757 62 62 62 
-0.742574 0.118812 -2.978218 61 61 61 
-0.732220 0.118738 -2.976376 60 60 60 
-0.665906 0.109464 -2.743900 59 59 59 
-0.656784 0.109464 -2.743900 58 58 58 
-0.647662 0.109464 -2.743900 58 58 58 
-0.638177 0.109402 -2.742336 59 59 59 
-0.628344 0.109277 -2.739214 59 59 59 
-0.612613 0.108108 -2.709910 61 61 61 
-0.603604 0.108108 -2.709910 59 59 59 
-0.594595 0.108108 -2.709910 58 58 58 
-0.585586 0.108108 -2.709910 60 60 60 
-0.567568 0.108108 -2.709910 66 66 66 
-0.558559 0.108108 -2.709910 63 63 63 
-0.549550 0.108108 -2.709910 61 61 61 
-0.540541 0.108108 -2.709910 62 62 62 
-0.531532 0.108108 -2.709910 67 67 67 
-0.522523 0.108108 -2.709910 70 70 70 
-0.513514 0.108108 -2.709910 71 71 71 
-0.504505 0.108108 -2.709910 69 69 69 
-0.495495 0.108108 -2.709910 71 71 71 
-0.486486 0.108108 -2.709910 73 73 73 
-0.477477 0.108108 -2.709910 81 81 81 
-0.537815 0.124111 -3.111053 78 78 78 
-0.528840 0.124433 -3.119118 67 67 67 
-0.518471 0.124433 -3.119118 64 64 64 
-0.429405 0.112019 -2.807935 85 85 85 
-0.419825 0.111953 -2.806297 91 91 91 
-0.410735 0.112019 -2.807935 96 96 96 
-0.401635 0.112084 -2.809574 95 95 95 
-0.392294 0.112084 -2.809574 92 92 92 
-0.382954 0.112084 -2.809574 96 96 96 
-0.198540 0.140146 -3.512993 136 136 136 
-0.185776 0.139332 -3.492598 134 134 134 
-0.172911 0.138329 -3.467435 132 132 132 
-0.160804 0.137832 -3.454989 124 124 124 
-0.149318 0.137832 -3.454989 119 119 119 
0.261261 0.108108 -2.709910 45 45 45 
0.270270 0.108108 -2.709910 42 42 42 
0.279279 0.108108 -2.709910 43 43 43 
0.288288 0.108108 -2.709910 45 45 45 
0.297297 0.108108 -2.709910 44 44 44 
0.306306 0.108108 -2.709910 43 43 43 
0.316921 0.108659 -2.723712 40 40 40 
0.346988 0.115663 -2.899277 42 42 42 
0.356627 0.115663 -2.899277 44 44 44 
0.366045 0.115593 -2.897532 41 41 41 
0.375451 0.115523 -2.895788 45 45 45 
0.385078 0.115523 -2.895788 47 47 47 
0.394705 0.115523 -2.895788 44 44 44 
0.404576 0.115593 -2.897532 40 40 40 
0.414708 0.115732 -2.901025 38 38 38 
0.425378 0.116012 -2.908036 40 40 40 
0.435572 0.116152 -2.911555 44 44 44 
1.832224 0.255659 -6.408522 41 41 41 
1.856000 0.256000 -6.417067 43 43 43 
1.897574 0.258760 -6.486253 44 44 44 
1.929539 0.260163 -6.521409 46 46 46 
1.951220 0.260163 -6.521409 47 47 47 
1.972900 0.260163 -6.521409 49 49 49 
1.997286 0.260516 -6.530258 51 51 51 
2.021739 0.260870 -6.539130 52 52 52 
2.054645 0.262295 -6.574863 55 55 55 
3.252859 0.243964 -6.115375 54 54 54 
3.273189 0.243964 -6.115375 62 62 62 
2.024691 0.148148 -3.713580 68 68 68 
2.019893 0.146901 -3.682326 57 57 57 
2.030581 0.146789 -3.679511 52 52 52 
2.042814 0.146789 -3.679511 48 48 48 
2.604651 0.186047 -4.663566 46 46 46 
2.620155 0.186047 -4.663566 43 43 43 
2.635659 0.186047 -4.663566 45 45 45 
2.671875 0.187500 -4.700000 45 45 45 
2.687500 0.187500 -4.700000 42 42 42 
5.406250 0.375000 -9.400000 45 45 45 
5.437500 0.375000 -9.400000 46 46 46 
5.468750 0.375000 -9.400000 40 40 40 
5.500000 0.375000 -9.400000 41 41 41 
5.446154 0.369231 -9.255384 52 52 52 
4.450000 0.300000 -7.520000 54 54 54 
4.475000 0.300000 -7.520000 44 44 44 
5.538462 0.369231 -9.255384 45 45 45 
5.569231 0.369231 -9.255384 45 45 45 
5.687500 0.375000 -9.400000 38 38 38 
7.766578 0.509284 -12.766047 31 31 31 
7.809019 0.509284 -12.766047 35 35 35 
7.851459 0.509284 -12.766047 34 34 34 
7.750000 0.500000 -12.533333 37 37 37 
7.791667 0.500000 -12.533333 48 48 48 
-0.753875 0.109113 -2.983757 65 65 65 
-0.742574 0.108911 -2.978218 73 73 73 
-0.732220 0.108844 -2.976376 70 70 70 
-0.665906 0.100342 -2.743900 63 63 63 
-0.656784 0.100342 -2.743900 63 63 63 
-0.647662 0.100342 -2.743900 63 63 63 
-0.638177 0.100285 -2.742336 66 66 66 
-0.628344 0.100171 -2.739214 67 67 67 
-0.612613 0.099099 -2.709910 70 70 70 
-0.603604 0.099099 -2.709910 66 66 66 
-0.594595 0.099099 -2.709910 62 62 62 
-0.567568 0.099099 -2.709910 77 77 77 
-0.558559 0.099099 -2.709910 71 71 71 
-0.549550 0.099099 -2.709910 71 71 71 
-0.540541 0.099099 -2.709910 71 71 71 
-0.531532 0.099099 -2.709910 74 74 74 
-0.522523 0.099099 -2.709910 77 77 77 
-0.513514 0.099099 -2.709910 79 79 79 
-0.504505 0.099099 -2.709910 77 77 77 
-0.495495 0.099099 -2.709910 79 79 79 
-0.486486 0.099099 -2.709910 81 81 81 
-0.477477 0.099099 -2.709910 88 88 88 
-0.539209 0.114064 -3.119118 86 86 86 
-0.528840 0.114064 -3.119118 77 77 77 
-0.517130 0.113769 -3.111053 75 75 75 
-0.504829 0.113329 -3.099034 81 81 81 
-0.429405 0.102684 -2.807935 94 94 94 
-0.419580 0.102564 -2.804662 97 97 97 
-0.410496 0.102624 -2.806297 99 99 99 
-0.401166 0.102624 -2.806297 97 97 97 
-0.391837 0.102624 -2.806297 96 96 96 
-0.382954 0.102744 -2.809574 97 97 97 
-0.198395 0.128373 -3.510430 131 131 131 
-0.185776 0.127721 -3.492598 130 130 130 
-0.172911 0.126801 -3.467435 129 129 129 
-0.160804 0.126346 -3.454989 121 121 121 
-0.149318 0.126346 -3.454989 118 118 118 
0.261261 0.099099 -2.709910 47 47 47 
0.270270 0.099099 -2.709910 44 44 44 
0.279279 0.099099 -2.709910 44 44 44 
0.288288 0.099099 -2.709910 45 45 45 
0.297297 0.099099 -2.709910 40 40 40 
0.306306 0.099099 -2.709910 38 38 38 
0.318182 0.100000 -2.734545 37 37 37 
0.366045 0.105960 -2.897532 46 46 46 
0.375451 0.105897 -2.895788 47 47 47 
0.385078 0.105897 -2.895788 41 41 41 
0.394705 0.105897 -2.895788 36 36 36 
0.404576 0.105960 -2.897532 36 36 36 
0.414708 0.106088 -2.901025 39 39 39 
0.425378 0.106344 -2.908036 46 46 46 
1.813333 0.234667 -6.417067 53 53 53 
1.832224 0.234354 -6.408522 52 52 52 
1.858478 0.234980 -6.425634 52 52 52 
1.900135 0.237517 -6.495007 55 55 55 
1.929539 0.238482 -6.521409 56 56 56 
1.951220 0.238482 -6.521409 52 52 52 
1.972900 0.238482 -6.521409 54 54 54 
1.997286 0.238806 -6.530258 58 58 58 
2.021739 0.239130 -6.539130 58 58 58 
2.051842 0.240109 -6.565893 57 57 57 
2.079343 0.240766 -6.583858 57 57 57 
2.031153 0.137072 -3.748286 60 60 60 
2.035686 0.136540 -3.733747 69 69 69 
2.035466 0.135698 -3.710717 62 62 62 
2.032135 0.134660 -3.682326 56 56 56 
2.044376 0.134660 -3.682326 57 57 57 
2.604651 0.170543 -4.663566 54 54 54 
2.620155 0.170543 -4.663566 56 56 56 
2.635659 0.170543 -4.663566 48 48 48 
2.671875 0.171875 -4.700000 37 37 37 
2.687500 0.171875 -4.700000 48 48 48 
5.406250 0.343750 -9.400000 67 67 67 
5.437500 0.343750 -9.400000 63 63 63 
5.468750 0.343750 -9.400000 44 44 44 
5.500000 0.343750 -9.400000 37 37 37 
5.446154 0.338462 -9.255384 51 51 51 
4.450000 0.275000 -7.520000 54 54 54 
4.475000 0.275000 -7.520000 49 49 49 
5.538462 0.338462 -9.255384 46 46 46 
5.569231 0.338462 -9.255384 39 39 39 
5.687500 0.343750 -9.400000 36 36 36 
7.766578 0.466844 -12.766047 36 36 36 
7.809019 0.466844 -12.766047 38 38 38 
7.851459 0.466844 -12.766047 37 37 37 
7.750000 0.458333 -12.533333 38 38 38 
7.791667 0.458333 -12.533333 39 39 39 
-0.753875 0.099194 -2.983757 72 72 72 
-0.742574 0.099010 -2.978218 79 79 79 
-0.675414 0.091272 -2.745465 82 82 82 
-0.665906 0.091220 -2.743900 75 75 75 
-0.656784 0.091220 -2.743900 73 73 73 
-0.647662 0.091220 -2.743900 73 73 73 
-0.638177 0.091168 -2.742336 78 78 78 
-0.628344 0.091064 -2.739214 79 79 79 
-0.612613 0.090090 -2.709910 80 80 80 
-0.603604 0.090090 -2.709910 78 78 78 
-0.594595 0.090090 -2.709910 73 73 73 
-0.585586 0.090090 -2.709910 77 77 77 
-0.576577 0.090090 -2.709910 87 87 87 
-0.567568 0.090090 -2.709910 91 91 91 
-0.558559 0.090090 -2.709910 83 83 83 
-0.549550 0.090090 -2.709910 81 81 81 
-0.540541 0.090090 -2.709910 84 84 84 
-0.531532 0.090090 -2.709910 85 85 85 
-0.522523 0.090090 -2.709910 88 88 88 
-0.513514 0.090090 -2.709910 88 88 88 
-0.504505 0.090090 -2.709910 84 84 84 
-0.495495 0.090090 -2.709910 84 84 84 
-0.486486 0.090090 -2.709910 85 85 85 
-0.477477 0.090090 -2.709910 86 86 86 
-0.541314 0.104099 -3.131294 84 84 84 
-0.518471 0.103694 -3.119118 82 82 82 
-0.490306 0.100063 -3.009881 82 82 82 
-0.419336 0.093186 -2.803028 80 80 80 
-0.409779 0.093132 -2.801397 78 78 78 
-0.400699 0.093186 -2.803028 78 78 78 
-0.391380 0.093186 -2.803028 80 80 80 
-0.382507 0.093294 -2.806297 81 81 81 
-0.198251 0.116618 -3.507872 127 127 127 
