ply
format ascii 1.0
element vertex 1212
property float x
property float y
property float z
property uchar red
property uchar green
property uchar blue
end_header
-0.666667 -0.082192 -2.747032 77 77 77 
-0.656784 -0.082098 -2.743900 73 73 73 
-0.646557 -0.081958 -2.739214 71 71 71 
-0.637450 -0.081958 -2.739214 70 70 70 
-0.627986 -0.081911 -2.737656 70 70 70 
-0.618885 -0.081911 -2.737656 72 72 72 
-0.603604 -0.081081 -2.709910 77 77 77 
-0.594595 -0.081081 -2.709910 80 80 80 
-0.599769 -0.083045 -2.775548 81 81 81 
-0.590542 -0.083045 -2.775548 82 82 82 
-0.581315 -0.083045 -2.775548 82 82 82 
-0.572748 -0.083141 -2.778753 82 82 82 
-0.540541 -0.081081 -2.709910 79 79 79 
-0.573512 -0.087485 -2.923937 77 77 77 
-0.564477 -0.087591 -2.927494 76 76 76 
-0.555082 -0.087645 -2.929276 83 83 83 
-0.547009 -0.087912 -2.938217 86 86 86 
-0.565189 -0.092486 -3.091073 83 83 83 
-0.554913 -0.092486 -3.091073 81 81 81 
-0.542199 -0.092072 -3.077238 77 77 77 
-0.530612 -0.091837 -3.069388 73 73 73 
-0.520076 -0.091778 -3.067431 71 71 71 
-0.508582 -0.091545 -3.059631 71 71 71 
-0.283395 -0.106273 -3.551882 95 95 95 
-0.270389 -0.105805 -3.536223 97 97 97 
-0.255814 -0.104651 -3.497674 74 74 74 
-0.242075 -0.103746 -3.467435 91 91 91 
-0.230548 -0.103746 -3.467435 88 88 88 
-0.218862 -0.103672 -3.464939 67 67 67 
-0.206600 -0.103300 -3.452511 64 64 64 
-0.192908 -0.102128 -3.413333 63 63 63 
-0.179902 -0.101195 -3.382150 65 65 65 
-0.167832 -0.100699 -3.365594 66 66 66 
-0.156643 -0.100699 -3.365594 67 67 67 
0.256532 -0.085511 -2.857957 58 58 58 
0.265089 -0.085207 -2.847811 56 56 56 
0.273908 -0.085006 -2.841086 59 59 59 
0.282519 -0.084756 -2.832725 62 62 62 
0.290058 -0.084211 -2.814503 57 57 57 
0.298891 -0.084063 -2.809574 51 51 51 
0.306087 -0.083478 -2.790029 51 51 51 
0.314269 -0.083189 -2.780358 51 51 51 
0.324262 -0.083382 -2.786798 49 49 49 
0.367059 -0.084706 -2.831059 50 50 50 
0.375807 -0.084557 -2.826072 52 52 52 
0.385203 -0.084557 -2.826072 61 61 61 
0.395062 -0.084656 -2.829394 78 78 78 
0.405421 -0.084856 -2.836064 103 103 103 
0.415094 -0.084906 -2.837736 112 112 112 
1.234811 -0.236453 -7.902791 70 70 70 
1.261084 -0.236453 -7.902791 67 67 67 
1.287356 -0.236453 -7.902791 63 63 63 
1.315789 -0.236842 -7.915789 55 55 55 
1.342105 -0.236842 -7.915789 50 50 50 
1.368421 -0.236842 -7.915789 48 48 48 
1.394737 -0.236842 -7.915789 47 47 47 
1.423394 -0.237232 -7.928830 45 45 45 
1.459370 -0.238806 -7.981426 45 45 45 
1.825095 -0.273764 -9.149810 46 46 46 
1.855513 -0.273764 -9.149810 46 46 46 
1.885932 -0.273764 -9.149810 47 47 47 
1.916350 -0.273764 -9.149810 50 50 50 
1.702128 -0.180225 -6.023529 44 44 44 
1.722153 -0.180225 -6.023529 44 44 44 
1.740000 -0.180000 -6.016000 44 44 44 
1.480547 -0.151420 -5.060778 44 44 44 
1.491099 -0.150785 -5.039581 45 45 45 
1.514196 -0.151420 -5.060778 45 45 45 
1.537487 -0.152059 -5.082154 44 44 44 
1.557672 -0.152381 -5.092910 44 44 44 
1.576271 -0.152542 -5.098305 54 54 54 
2.439394 -0.136364 -4.557576 51 51 51 
2.454545 -0.136364 -4.557576 49 49 49 
2.469697 -0.136364 -4.557576 49 49 49 
2.484848 -0.136364 -4.557576 54 54 54 
2.500000 -0.136364 -4.557576 60 60 60 
2.515152 -0.136364 -4.557576 62 62 62 
2.530303 -0.136364 -4.557576 62 62 62 
2.564885 -0.137405 -4.592366 58 58 58 
2.580153 -0.137405 -4.592366 54 54 54 
2.635659 -0.139535 -4.663566 59 59 59 
2.651163 -0.139535 -4.663566 68 68 68 
4.473934 -0.227488 -7.603159 61 61 61 
4.450000 -0.225000 -7.520000 63 63 63 
4.475000 -0.225000 -7.520000 60 60 60 
4.500000 -0.225000 -7.520000 51 51 51 
4.525000 -0.225000 -7.520000 44 44 44 
4.550000 -0.225000 -7.520000 39 39 39 
4.575000 -0.225000 -7.520000 45 45 45 
4.600000 -0.225000 -7.520000 49 49 49 
4.625000 -0.225000 -7.520000 44 44 44 
5.812500 -0.281250 -9.400000 50 50 50 
5.843750 -0.281250 -9.400000 66 66 66 
-0.684932 -0.091324 -2.747032 77 77 77 
-0.675799 -0.091324 -2.747032 77 77 77 
-0.666667 -0.091324 -2.747032 78 78 78 
-0.656784 -0.091220 -2.743900 75 75 75 
-0.646557 -0.091064 -2.739214 73 73 73 
-0.637450 -0.091064 -2.739214 74 74 74 
-0.628344 -0.091064 -2.739214 74 74 74 
-0.619237 -0.091064 -2.739214 74 74 74 
-0.609784 -0.091013 -2.737656 75 75 75 
-0.610405 -0.092486 -2.781965 77 77 77 
-0.601156 -0.092486 -2.781965 74 74 74 
-0.591224 -0.092379 -2.778753 72 72 72 
-0.581986 -0.092379 -2.778753 71 71 71 
-0.592959 -0.098826 -2.972699 67 67 67 
-0.576313 -0.097680 -2.938217 64 64 64 
-0.564820 -0.097383 -2.929276 64 64 64 
-0.556437 -0.097621 -2.936424 64 64 64 
-0.547009 -0.097680 -2.938217 63 63 63 
-0.565189 -0.102762 -3.091073 63 63 63 
-0.555627 -0.102894 -3.095048 61 61 61 
-0.544288 -0.102696 -3.089088 57 57 57 
-0.530612 -0.102041 -3.069388 56 56 56 
-0.518754 -0.101716 -3.059631 56 56 56 
-0.476190 -0.095238 -2.864762 56 56 56 
-0.467223 -0.095352 -2.868176 53 53 53 
-0.458781 -0.095579 -2.875030 51 51 51 
-0.271186 -0.117907 -3.546647 101 101 101 
-0.256373 -0.116533 -3.505317 81 81 81 
-0.242075 -0.115274 -3.467435 91 91 91 
-0.230548 -0.115274 -3.467435 93 93 93 
-0.219336 -0.115440 -3.472439 72 72 72 
-0.207792 -0.115440 -3.472439 70 70 70 
-0.192771 -0.113395 -3.410914 67 67 67 
-0.179902 -0.112439 -3.382150 67 67 67 
-0.167832 -0.111888 -3.365594 68 68 68 
-0.156643 -0.111888 -3.365594 69 69 69 
0.256532 -0.095012 -2.857957 56 56 56 
0.265246 -0.094731 -2.849497 54 54 54 
0.274232 -0.094563 -2.844444 55 55 55 
0.282852 -0.094284 -2.836064 57 57 57 
0.290909 -0.093842 -2.822757 54 54 54 
0.299766 -0.093677 -2.817798 51 51 51 
0.307872 -0.093294 -2.806297 52 52 52 
0.317572 -0.093403 -2.809574 53 53 53 
0.330579 -0.094451 -2.841086 50 50 50 
0.349469 -0.094451 -2.841086 50 50 50 
0.358491 -0.094340 -2.837736 52 52 52 
0.367059 -0.094118 -2.831059 50 50 50 
0.376471 -0.094118 -2.831059 48 48 48 
0.385655 -0.094062 -2.829394 55 55 55 
0.395527 -0.094173 -2.832725 75 75 75 
0.405421 -0.094284 -2.836064 100 100 100 
0.415094 -0.094340 -2.837736 110 110 110 
1.236842 -0.263158 -7.915789 65 65 65 
1.261084 -0.262726 -7.902791 56 56 56 
1.287356 -0.262726 -7.902791 50 50 50 
1.315789 -0.263158 -7.915789 47 47 47 
1.342105 -0.263158 -7.915789 46 46 46 
1.368421 -0.263158 -7.915789 46 46 46 
1.394737 -0.263158 -7.915789 47 47 47 
1.421053 -0.263158 -7.915789 46 46 46 
1.825095 -0.304182 -9.149810 46 46 46 
1.855513 -0.304182 -9.149810 47 47 47 
1.885932 -0.304182 -9.149810 48 48 48 
1.702128 -0.200250 -6.023529 44 44 44 
1.722153 -0.200250 -6.023529 46 46 46 
1.740000 -0.200000 -6.016000 48 48 48 
1.485232 -0.168776 -5.076793 45 45 45 
1.497371 -0.168244 -5.060778 44 44 44 
1.520591 -0.168955 -5.082154 47 47 47 
1.540741 -0.169312 -5.092910 47 47 47 
1.559322 -0.169492 -5.098305 48 48 48 
1.579618 -0.169851 -5.109129 60 60 60 
2.439394 -0.151515 -4.557576 53 53 53 
2.454545 -0.151515 -4.557576 52 52 52 
2.469697 -0.151515 -4.557576 52 52 52 
2.484848 -0.151515 -4.557576 58 58 58 
2.500000 -0.151515 -4.557576 63 63 63 
2.515152 -0.151515 -4.557576 60 60 60 
2.530303 -0.151515 -4.557576 62 62 62 
2.564885 -0.152672 -4.592366 61 61 61 
2.580153 -0.152672 -4.592366 55 55 55 
2.635659 -0.155039 -4.663566 56 56 56 
2.651163 -0.155039 -4.663566 65 65 65 
4.473934 -0.252765 -7.603159 61 61 61 
4.450000 -0.250000 -7.520000 64 64 64 
4.475000 -0.250000 -7.520000 61 61 61 
4.500000 -0.250000 -7.520000 47 47 47 
4.525000 -0.250000 -7.520000 41 41 41 
4.550000 -0.250000 -7.520000 39 39 39 
4.575000 -0.250000 -7.520000 41 41 41 
4.600000 -0.250000 -7.520000 42 42 42 
4.625000 -0.250000 -7.520000 42 42 42 
5.812500 -0.312500 -9.400000 38 38 38 
5.843750 -0.312500 -9.400000 33 33 33 
-0.684932 -0.100457 -2.747032 66 66 66 
-0.675799 -0.100457 -2.747032 65 65 65 
-0.666667 -0.100457 -2.747032 65 65 65 
-0.656410 -0.100285 -2.742336 62 62 62 
-0.646189 -0.100114 -2.737656 60 60 60 
-0.637088 -0.100114 -2.737656 59 59 59 
-0.628344 -0.100171 -2.739214 58 58 58 
-0.619237 -0.100171 -2.739214 57 57 57 
-0.610478 -0.100228 -2.740774 56 56 56 
-0.610405 -0.101734 -2.781965 56 56 56 
-0.601156 -0.101734 -2.781965 55 55 55 
-0.591566 -0.101675 -2.780358 54 54 54 
-0.582322 -0.101675 -2.780358 54 54 54 
-0.593692 -0.108844 -2.976376 53 53 53 
-0.578786 -0.107909 -2.950828 54 54 54 
-0.567237 -0.107579 -2.941809 56 56 56 
-0.556777 -0.107448 -2.938217 54 54 54 
-0.548012 -0.107645 -2.943609 55 55 55 
-0.565916 -0.113183 -3.095048 58 58 58 
-0.518424 -0.111817 -3.057687 56 56 56 
-0.474777 -0.104451 -2.856261 56 56 56 
-0.466667 -0.104762 -2.864762 53 53 53 
-0.457688 -0.104887 -2.868176 51 51 51 
-0.448153 -0.104887 -2.868176 54 54 54 
-0.271787 -0.129985 -3.554505 102 102 102 
-0.257687 -0.128843 -3.523279 84 84 84 
-0.242249 -0.126893 -3.469935 90 90 90 
-0.230714 -0.126893 -3.469935 95 95 95 
-0.192771 -0.124734 -3.410914 66 66 66 
-0.179902 -0.123682 -3.382150 66 66 66 
-0.167950 -0.123163 -3.367949 68 68 68 
-0.156753 -0.123163 -3.367949 69 69 69 
0.256532 -0.104513 -2.857957 53 53 53 
0.265560 -0.104327 -2.852875 52 52 52 
0.274556 -0.104142 -2.847811 53 53 53 
0.283019 -0.103774 -2.837736 53 53 53 
0.292280 -0.103712 -2.836064 52 52 52 
0.300646 -0.103347 -2.826072 51 51 51 
0.310041 -0.103347 -2.826072 53 53 53 
0.320755 -0.103774 -2.837736 55 55 55 
0.331165 -0.104080 -2.846126 53 53 53 
0.340627 -0.104080 -2.846126 50 50 50 
0.349057 -0.103774 -2.837736 50 50 50 
0.358491 -0.103774 -2.837736 55 55 55 
0.367491 -0.103651 -2.834393 52 52 52 
0.376692 -0.103590 -2.832725 49 49 49 
0.386109 -0.103590 -2.832725 53 53 53 
0.395993 -0.103712 -2.836064 72 72 72 
0.405660 -0.103774 -2.837736 92 92 92 
0.415339 -0.103835 -2.839410 103 103 103 
0.425030 -0.103896 -2.841086 89 89 89 
1.236842 -0.289474 -7.915789 59 59 59 
1.261084 -0.288998 -7.902791 50 50 50 
1.287356 -0.288998 -7.902791 46 46 46 
1.315789 -0.289474 -7.915789 45 45 45 
1.342105 -0.289474 -7.915789 46 46 46 
1.368421 -0.289474 -7.915789 46 46 46 
1.394737 -0.289474 -7.915789 47 47 47 
1.828571 -0.335238 -9.167237 46 46 46 
1.859048 -0.335238 -9.167237 48 48 48 
1.702128 -0.220275 -6.023529 47 47 47 
1.722153 -0.220275 -6.023529 48 48 48 
1.740000 -0.220000 -6.016000 50 50 50 
1.488372 -0.186047 -5.087526 51 51 51 
1.503696 -0.185850 -5.082154 54 54 54 
1.523810 -0.186243 -5.092910 58 58 58 
1.542373 -0.186441 -5.098305 58 58 58 
1.562633 -0.186837 -5.109129 60 60 60 
1.584665 -0.187433 -5.125453 69 69 69 
2.439394 -0.166667 -4.557576 56 56 56 
2.454545 -0.166667 -4.557576 53 53 53 
2.469697 -0.166667 -4.557576 54 54 54 
2.484848 -0.166667 -4.557576 61 61 61 
2.500000 -0.166667 -4.557576 71 71 71 
2.515152 -0.166667 -4.557576 62 62 62 
2.530303 -0.166667 -4.557576 60 60 60 
2.564885 -0.167939 -4.592366 60 60 60 
2.580153 -0.167939 -4.592366 55 55 55 
2.635659 -0.170543 -4.663566 56 56 56 
2.651163 -0.170543 -4.663566 62 62 62 
4.473934 -0.278041 -7.603159 61 61 61 
4.450000 -0.275000 -7.520000 63 63 63 
4.475000 -0.275000 -7.520000 57 57 57 
4.500000 -0.275000 -7.520000 43 43 43 
4.525000 -0.275000 -7.520000 39 39 39 
4.550000 -0.275000 -7.520000 38 38 38 
4.575000 -0.275000 -7.520000 40 40 40 
4.600000 -0.275000 -7.520000 40 40 40 
4.625000 -0.275000 -7.520000 39 39 39 
5.812500 -0.343750 -9.400000 34 34 34 
5.843750 -0.343750 -9.400000 25 25 25 
-0.684932 -0.109589 -2.747032 55 55 55 
-0.675799 -0.109589 -2.747032 54 54 54 
-0.666667 -0.109589 -2.747032 55 55 55 
-0.656410 -0.109402 -2.742336 53 53 53 
-0.646189 -0.109215 -2.737656 51 51 51 
-0.637088 -0.109215 -2.737656 50 50 50 
-0.627629 -0.109153 -2.736100 49 49 49 
-0.618182 -0.109091 -2.734545 50 50 50 
-0.610478 -0.109339 -2.740774 51 51 51 
-0.610758 -0.111047 -2.783574 54 54 54 
-0.601504 -0.111047 -2.783574 55 55 55 
-0.591566 -0.110919 -2.780358 53 53 53 
-0.582322 -0.110919 -2.780358 53 53 53 
-0.620000 -0.120000 -3.008000 55 55 55 
-0.630084 -0.123951 -3.107037 54 54 54 
-0.595903 -0.119181 -2.987461 54 54 54 
-0.583076 -0.118592 -2.972699 55 55 55 
-0.568279 -0.117575 -2.947214 58 58 58 
-0.557798 -0.117431 -2.943609 57 57 57 
-0.548012 -0.117431 -2.943609 57 57 57 
-0.538885 -0.117575 -2.947214 60 60 60 
-0.481700 -0.113341 -2.841086 60 60 60 
-0.474777 -0.113947 -2.856261 60 60 60 
-0.466667 -0.114286 -2.864762 58 58 58 
-0.447886 -0.114354 -2.866468 58 58 58 
-0.428062 -0.114150 -2.861355 60 60 60 
-0.394495 -0.110092 -2.759633 64 64 64 
-0.385321 -0.110092 -2.759633 59 59 59 
-0.375501 -0.109903 -2.754894 60 60 60 
-0.366342 -0.109903 -2.754894 73 73 73 
-0.296736 -0.142433 -3.570326 81 81 81 
-0.284866 -0.142433 -3.570326 90 90 90 
-0.272593 -0.142222 -3.565037 98 98 98 
-0.258065 -0.140762 -3.528446 90 90 90 
-0.242424 -0.138528 -3.472439 95 95 95 
-0.230880 -0.138528 -3.472439 95 95 95 
-0.192908 -0.136170 -3.413333 66 66 66 
-0.180028 -0.135021 -3.384529 67 67 67 
-0.168067 -0.134454 -3.370308 70 70 70 
-0.156863 -0.134454 -3.370308 71 71 71 
0.256684 -0.114082 -2.859655 51 51 51 
0.266033 -0.114014 -2.857957 50 50 50 
0.274882 -0.113744 -2.851185 51 51 51 
0.284192 -0.113677 -2.849497 54 54 54 
0.292971 -0.113408 -2.842764 52 52 52 
0.301887 -0.113208 -2.837736 51 51 51 
0.311321 -0.113208 -2.837736 54 54 54 
0.322466 -0.113812 -2.852875 56 56 56 
0.331950 -0.113812 -2.852875 54 54 54 
0.340627 -0.113542 -2.846126 51 51 51 
0.349469 -0.113341 -2.841086 50 50 50 
0.358491 -0.113208 -2.837736 51 51 51 
0.367925 -0.113208 -2.837736 52 52 52 
0.377358 -0.113208 -2.837736 52 52 52 
0.386792 -0.113208 -2.837736 56 56 56 
0.396460 -0.113274 -2.839410 72 72 72 
0.406139 -0.113341 -2.841086 88 88 88 
0.415584 -0.113341 -2.841086 94 94 94 
0.425281 -0.113408 -2.842764 80 80 80 
1.210526 -0.315789 -7.915789 66 66 66 
1.236842 -0.315789 -7.915789 55 55 55 
1.261084 -0.315271 -7.902791 50 50 50 
1.287356 -0.315271 -7.902791 47 47 47 
1.315789 -0.315789 -7.915789 45 45 45 
1.342105 -0.315789 -7.915789 46 46 46 
1.368421 -0.315789 -7.915789 48 48 48 
1.394737 -0.315789 -7.915789 47 47 47 
1.835564 -0.367113 -9.202294 47 47 47 
1.866157 -0.367113 -9.202294 50 50 50 
1.702128 -0.240300 -6.023529 55 55 55 
1.722153 -0.240300 -6.023529 57 57 57 
1.742178 -0.240300 -6.023529 59 59 59 
1.489947 -0.203175 -5.092910 64 64 64 
1.505285 -0.202960 -5.087526 73 73 73 
1.523810 -0.203175 -5.092910 80 80 80 
1.545648 -0.203822 -5.109129 78 78 78 
1.562633 -0.203822 -5.109129 78 78 78 
1.584665 -0.204473 -5.125453 87 87 87 
2.439394 -0.181818 -4.557576 52 52 52 
2.454545 -0.181818 -4.557576 50 50 50 
2.469697 -0.181818 -4.557576 55 55 55 
2.484848 -0.181818 -4.557576 63 63 63 
2.500000 -0.181818 -4.557576 73 73 73 
2.515152 -0.181818 -4.557576 68 68 68 
2.530303 -0.181818 -4.557576 62 62 62 
2.564885 -0.183206 -4.592366 59 59 59 
2.580153 -0.183206 -4.592366 55 55 55 
2.635659 -0.186047 -4.663566 57 57 57 
2.651163 -0.186047 -4.663566 60 60 60 
4.473934 -0.303318 -7.603159 60 60 60 
4.450000 -0.300000 -7.520000 61 61 61 
4.475000 -0.300000 -7.520000 54 54 54 
4.500000 -0.300000 -7.520000 44 44 44 
4.525000 -0.300000 -7.520000 38 38 38 
4.550000 -0.300000 -7.520000 38 38 38 
4.575000 -0.300000 -7.520000 39 39 39 
4.600000 -0.300000 -7.520000 38 38 38 
4.625000 -0.300000 -7.520000 35 35 35 
5.812500 -0.375000 -9.400000 34 34 34 
5.843750 -0.375000 -9.400000 28 28 28 
-0.684932 -0.118721 -2.747032 57 57 57 
-0.675799 -0.118721 -2.747032 58 58 58 
-0.666667 -0.118721 -2.747032 60 60 60 
-0.656410 -0.118519 -2.742336 56 56 56 
-0.646189 -0.118316 -2.737656 52 52 52 
-0.636725 -0.118249 -2.736100 50 50 50 
-0.627273 -0.118182 -2.734545 50 50 50 
-0.618182 -0.118182 -2.734545 52 52 52 
-0.609091 -0.118182 -2.734545 54 54 54 
-0.610758 -0.120301 -2.783574 57 57 57 
-0.601504 -0.120301 -2.783574 59 59 59 
-0.592250 -0.120301 -2.783574 59 59 59 
-0.630000 -0.130000 -3.008000 60 60 60 
-0.640000 -0.134194 -3.105032 61 61 61 
-0.569325 -0.127607 -2.952638 66 66 66 
-0.558481 -0.127373 -2.947214 64 64 64 
-0.548683 -0.127373 -2.947214 62 62 62 
-0.539546 -0.127529 -2.950828 64 64 64 
-0.405405 -0.117117 -2.709910 66 66 66 
-0.402746 -0.118993 -2.753318 64 64 64 
-0.394044 -0.119129 -2.756472 67 67 67 
-0.384880 -0.119129 -2.756472 65 65 65 
-0.375286 -0.118993 -2.753318 65 65 65 
-0.366133 -0.118993 -2.753318 80 80 80 
-0.296956 -0.154417 -3.572977 104 104 104 
-0.285078 -0.154417 -3.572977 113 113 113 
-0.273200 -0.154417 -3.572977 102 102 102 
-0.258443 -0.152717 -3.533627 115 115 115 
-0.242424 -0.150072 -3.472439 113 113 113 
-0.230880 -0.150072 -3.472439 99 99 99 
-0.219812 -0.150398 -3.479971 81 81 81 
-0.208243 -0.150398 -3.479971 71 71 71 
-0.192908 -0.147518 -3.413333 67 67 67 
-0.180155 -0.146376 -3.386910 70 70 70 
-0.168185 -0.145760 -3.372670 72 72 72 
-0.156973 -0.145760 -3.372670 73 73 73 
0.256990 -0.123736 -2.863058 52 52 52 
0.266191 -0.123589 -2.859655 52 52 52 
0.275371 -0.123442 -2.856261 51 51 51 
0.284529 -0.123296 -2.852875 54 54 54 
0.294013 -0.123296 -2.852875 52 52 52 
0.303497 -0.123296 -2.852875 51 51 51 
0.313353 -0.123442 -2.856261 55 55 55 
0.323232 -0.123589 -2.859655 57 57 57 
0.332542 -0.123515 -2.857957 54 54 54 
0.341435 -0.123296 -2.852875 51 51 51 
0.349882 -0.122931 -2.844444 50 50 50 
0.358914 -0.122786 -2.841086 51 51 51 
0.368142 -0.122714 -2.839410 53 53 53 
0.377581 -0.122714 -2.839410 55 55 55 
0.387021 -0.122714 -2.839410 60 60 60 
0.396694 -0.122786 -2.841086 76 76 76 
0.406619 -0.122931 -2.844444 85 85 85 
0.416076 -0.122931 -2.844444 89 89 89 
0.425532 -0.122931 -2.844444 73 73 73 
1.208539 -0.341544 -7.902791 61 61 61 
1.234811 -0.341544 -7.902791 55 55 55 
1.261084 -0.341544 -7.902791 51 51 51 
1.287356 -0.341544 -7.902791 48 48 48 
1.313629 -0.341544 -7.902791 47 47 47 
1.342105 -0.342105 -7.915789 48 48 48 
1.368421 -0.342105 -7.915789 48 48 48 
1.394737 -0.342105 -7.915789 48 48 48 
1.421053 -0.342105 -7.915789 47 47 47 
1.702128 -0.260325 -6.023529 65 65 65 
1.722153 -0.260325 -6.023529 65 65 65 
1.742178 -0.260325 -6.023529 67 67 67 
1.488372 -0.219873 -5.087526 74 74 74 
1.505285 -0.219873 -5.087526 86 86 86 
1.523810 -0.220106 -5.092910 90 90 90 
1.544008 -0.220573 -5.103711 80 80 80 
1.562633 -0.220807 -5.109129 80 80 80 
1.584665 -0.221512 -5.125453 84 84 84 
2.439394 -0.196970 -4.557576 49 49 49 
2.454545 -0.196970 -4.557576 49 49 49 
2.469697 -0.196970 -4.557576 56 56 56 
2.484848 -0.196970 -4.557576 69 69 69 
2.500000 -0.196970 -4.557576 81 81 81 
2.515152 -0.196970 -4.557576 74 74 74 
2.530303 -0.196970 -4.557576 65 65 65 
2.564885 -0.198473 -4.592366 62 62 62 
2.580153 -0.198473 -4.592366 62 62 62 
2.635659 -0.201550 -4.663566 59 59 59 
2.651163 -0.201550 -4.663566 62 62 62 
4.473934 -0.328594 -7.603159 58 58 58 
4.450000 -0.325000 -7.520000 57 57 57 
4.475000 -0.325000 -7.520000 52 52 52 
4.500000 -0.325000 -7.520000 47 47 47 
4.525000 -0.325000 -7.520000 42 42 42 
4.550000 -0.325000 -7.520000 40 40 40 
4.575000 -0.325000 -7.520000 39 39 39 
4.600000 -0.325000 -7.520000 38 38 38 
4.625000 -0.325000 -7.520000 31 31 31 
5.812500 -0.406250 -9.400000 27 27 27 
5.843750 -0.406250 -9.400000 29 29 29 
-0.684932 -0.127854 -2.747032 68 68 68 
-0.675799 -0.127854 -2.747032 67 67 67 
-0.666667 -0.127854 -2.747032 67 67 67 
-0.656410 -0.127635 -2.742336 65 65 65 
-0.646189 -0.127418 -2.737656 59 59 59 
-0.636364 -0.127273 -2.734545 53 53 53 
-0.627273 -0.127273 -2.734545 52 52 52 
-0.618182 -0.127273 -2.734545 56 56 56 
-0.609091 -0.127273 -2.734545 60 60 60 
-0.610758 -0.129555 -2.783574 63 63 63 
-0.668380 -0.143959 -3.093059 66 66 66 
-0.658945 -0.144144 -3.097040 66 66 66 
-0.648649 -0.144144 -3.097040 65 65 65 
-0.640413 -0.144609 -3.107037 69 69 69 
-0.574969 -0.138786 -2.981908 77 77 77 
-0.559509 -0.137423 -2.952638 72 72 72 
-0.549356 -0.137339 -2.950828 68 68 68 
-0.414414 -0.126126 -2.709910 68 68 68 
-0.405405 -0.126126 -2.709910 70 70 70 
-0.396396 -0.126126 -2.709910 72 72 72 
-0.393593 -0.128146 -2.753318 75 75 75 
-0.384659 -0.128220 -2.754894 72 72 72 
-0.375286 -0.128146 -2.753318 68 68 68 
-0.366133 -0.128146 -2.753318 80 80 80 
-0.296956 -0.166295 -3.572977 102 102 102 
-0.285078 -0.166295 -3.572977 116 116 116 
-0.242075 -0.161383 -3.467435 106 106 106 
-0.230216 -0.161151 -3.462446 106 106 106 
-0.218077 -0.160689 -3.452511 115 115 115 
-0.205274 -0.159658 -3.430363 93 93 93 
-0.192771 -0.158753 -3.410914 72 72 72 
-0.180155 -0.157635 -3.386910 73 73 73 
-0.168185 -0.156973 -3.372670 75 75 75 
-0.156973 -0.156973 -3.372670 75 75 75 
0.257143 -0.133333 -2.864762 53 53 53 
0.266508 -0.133254 -2.863058 52 52 52 
0.275698 -0.133096 -2.859655 51 51 51 
0.285205 -0.133096 -2.859655 55 55 55 
0.294712 -0.133096 -2.859655 54 54 54 
0.304219 -0.133096 -2.859655 52 52 52 
0.314099 -0.133254 -2.863058 55 55 55 
0.323617 -0.133254 -2.863058 57 57 57 
0.333135 -0.133254 -2.863058 55 55 55 
0.342043 -0.133017 -2.857957 51 51 51 
0.350296 -0.132544 -2.847811 51 51 51 
0.359126 -0.132310 -2.842764 51 51 51 
0.368142 -0.132153 -2.839410 53 53 53 
0.377581 -0.132153 -2.839410 56 56 56 
0.387021 -0.132153 -2.839410 62 62 62 
0.396929 -0.132310 -2.842764 77 77 77 
0.406860 -0.132466 -2.846126 84 84 84 
0.416322 -0.132466 -2.846126 93 93 93 
0.425532 -0.132388 -2.844444 80 80 80 
0.434988 -0.132388 -2.844444 68 68 68 
1.232787 -0.367213 -7.889836 62 62 62 
1.259016 -0.367213 -7.889836 56 56 56 
1.285246 -0.367213 -7.889836 53 53 53 
1.313629 -0.367816 -7.902791 52 52 52 
1.342105 -0.368421 -7.915789 55 55 55 
1.368421 -0.368421 -7.915789 56 56 56 
1.394737 -0.368421 -7.915789 56 56 56 
1.421053 -0.368421 -7.915789 54 54 54 
1.447368 -0.368421 -7.915789 52 52 52 
1.684211 -0.280702 -6.031077 70 70 70 
1.704261 -0.280702 -6.031077 66 66 66 
1.722153 -0.280350 -6.023529 64 64 64 
1.471459 -0.236786 -5.087526 64 64 64 
1.483667 -0.236038 -5.071444 76 76 76 
1.503696 -0.236536 -5.082154 85 85 85 
1.523810 -0.237037 -5.092910 76 76 76 
1.544008 -0.237540 -5.103711 70 70 70 
1.562633 -0.237792 -5.109129 73 73 73 
1.584665 -0.238552 -5.125453 73 73 73 
2.439394 -0.212121 -4.557576 52 52 52 
2.454545 -0.212121 -4.557576 50 50 50 
2.469697 -0.212121 -4.557576 55 55 55 
2.484848 -0.212121 -4.557576 69 69 69 
2.500000 -0.212121 -4.557576 78 78 78 
2.515152 -0.212121 -4.557576 73 73 73 
2.530303 -0.212121 -4.557576 62 62 62 
2.564885 -0.213740 -4.592366 62 62 62 
2.580153 -0.213740 -4.592366 63 63 63 
2.635659 -0.217054 -4.663566 58 58 58 
2.651163 -0.217054 -4.663566 63 63 63 
4.473934 -0.353870 -7.603159 55 55 55 
4.450000 -0.350000 -7.520000 50 50 50 
4.475000 -0.350000 -7.520000 51 51 51 
4.500000 -0.350000 -7.520000 51 51 51 
4.525000 -0.350000 -7.520000 48 48 48 
4.550000 -0.350000 -7.520000 43 43 43 
4.575000 -0.350000 -7.520000 41 41 41 
4.600000 -0.350000 -7.520000 39 39 39 
4.625000 -0.350000 -7.520000 34 34 34 
5.812500 -0.437500 -9.400000 28 28 28 
5.843750 -0.437500 -9.400000 25 25 25 
-0.684932 -0.136986 -2.747032 78 78 78 
-0.675799 -0.136986 -2.747032 74 74 74 
-0.666667 -0.136986 -2.747032 72 72 72 
-0.656410 -0.136752 -2.742336 69 69 69 
-0.646189 -0.136519 -2.737656 65 65 65 
-0.636725 -0.136441 -2.736100 59 59 59 
-0.627273 -0.136364 -2.734545 56 56 56 
-0.618182 -0.136364 -2.734545 61 61 61 
-0.620012 -0.138809 -2.783574 66 66 66 
-0.681290 -0.154839 -3.105032 68 68 68 
-0.670535 -0.154739 -3.103030 68 68 68 
-0.660219 -0.154739 -3.103030 68 68 68 
-0.649903 -0.154739 -3.103030 67 67 67 
-0.600751 -0.150188 -3.011765 69 69 69 
-0.587796 -0.149440 -2.996762 73 73 73 
-0.574969 -0.148699 -2.981908 81 81 81 
-0.563311 -0.148240 -2.972699 76 76 76 
-0.414414 -0.135135 -2.709910 80 80 80 
-0.405405 -0.135135 -2.709910 83 83 83 
-0.396396 -0.135135 -2.709910 86 86 86 
-0.393593 -0.137300 -2.753318 88 88 88 
-0.384439 -0.137300 -2.753318 87 87 87 
-0.375286 -0.137300 -2.753318 84 84 84 
-0.366133 -0.137300 -2.753318 87 87 87 
-0.309064 -0.178306 -3.575631 72 72 72 
-0.296956 -0.178174 -3.572977 73 73 73 
-0.285078 -0.178174 -3.572977 79 79 79 
-0.241379 -0.172414 -3.457471 77 77 77 
-0.229555 -0.172166 -3.452511 98 98 98 
-0.216833 -0.171184 -3.432810 108 108 108 
-0.205128 -0.170940 -3.427920 97 97 97 
-0.192771 -0.170092 -3.410914 77 77 77 
-0.180155 -0.168895 -3.386910 75 75 75 
-0.168185 -0.168185 -3.372670 78 78 78 
-0.156973 -0.168185 -3.372670 77 77 77 
0.266667 -0.142857 -2.864762 51 51 51 
0.275862 -0.142687 -2.861355 53 53 53 
0.285205 -0.142602 -2.859655 57 57 57 
0.294887 -0.142687 -2.861355 56 56 56 
0.304581 -0.142772 -2.863058 54 54 54 
0.314099 -0.142772 -2.863058 56 56 56 
0.324002 -0.142942 -2.866468 56 56 56 
0.333532 -0.142942 -2.866468 56 56 56 
0.342246 -0.142602 -2.859655 54 54 54 
0.350503 -0.142096 -2.849497 54 54 54 
0.359126 -0.141760 -2.842764 55 55 55 
0.368142 -0.141593 -2.839410 57 57 57 
0.377581 -0.141593 -2.839410 61 61 61 
0.387021 -0.141593 -2.839410 67 67 67 
0.396929 -0.141760 -2.842764 81 81 81 
0.406860 -0.141928 -2.846126 84 84 84 
0.416322 -0.141928 -2.846126 94 94 94 
0.425281 -0.141760 -2.842764 87 87 87 
0.434731 -0.141760 -2.842764 77 77 77 
1.232787 -0.393443 -7.889836 71 71 71 
1.259016 -0.393443 -7.889836 66 66 66 
1.285246 -0.393443 -7.889836 64 64 64 
1.313629 -0.394089 -7.902791 64 64 64 
1.339901 -0.394089 -7.902791 66 66 66 
1.368421 -0.394737 -7.915789 67 67 67 
1.394737 -0.394737 -7.915789 65 65 65 
1.421053 -0.394737 -7.915789 64 64 64 
1.686324 -0.301129 -6.038645 66 66 66 
1.704261 -0.300752 -6.031077 63 63 63 
1.724311 -0.300752 -6.031077 63 63 63 
1.744361 -0.300752 -6.031077 61 61 61 
1.483667 -0.252898 -5.071444 69 69 69 
1.503696 -0.253432 -5.082154 73 73 73 
1.527041 -0.254507 -5.103711 66 66 66 
1.544008 -0.254507 -5.103711 61 61 61 
1.564293 -0.255048 -5.114559 63 63 63 
1.924968 -0.310479 -6.226132 64 64 64 
2.439394 -0.227273 -4.557576 51 51 51 
2.454545 -0.227273 -4.557576 50 50 50 
2.469697 -0.227273 -4.557576 55 55 55 
2.484848 -0.227273 -4.557576 66 66 66 
2.500000 -0.227273 -4.557576 66 66 66 
2.515152 -0.227273 -4.557576 65 65 65 
2.530303 -0.227273 -4.557576 59 59 59 
2.564885 -0.229008 -4.592366 60 60 60 
2.580153 -0.229008 -4.592366 59 59 59 
2.635659 -0.232558 -4.663566 52 52 52 
2.651163 -0.232558 -4.663566 49 49 49 
4.473934 -0.379147 -7.603159 52 52 52 
4.450000 -0.375000 -7.520000 43 43 43 
4.475000 -0.375000 -7.520000 48 48 48 
4.500000 -0.375000 -7.520000 52 52 52 
4.525000 -0.375000 -7.520000 51 51 51 
4.550000 -0.375000 -7.520000 46 46 46 
4.575000 -0.375000 -7.520000 43 43 43 
4.600000 -0.375000 -7.520000 43 43 43 
4.625000 -0.375000 -7.520000 43 43 43 
5.812500 -0.468750 -9.400000 37 37 37 
5.843750 -0.468750 -9.400000 26 26 26 
-0.684932 -0.146119 -2.747032 79 79 79 
-0.675799 -0.146119 -2.747032 80 80 80 
-0.666667 -0.146119 -2.747032 79 79 79 
-0.656410 -0.145869 -2.742336 75 75 75 
-0.646189 -0.145620 -2.737656 69 69 69 
-0.637088 -0.145620 -2.737656 63 63 63 
-0.627629 -0.145537 -2.736100 60 60 60 
-0.751900 -0.176918 -3.326054 63 63 63 
-0.707124 -0.168865 -3.174670 67 67 67 
-0.685269 -0.166126 -3.123167 67 67 67 
-0.670535 -0.165055 -3.103030 69 69 69 
-0.658945 -0.164736 -3.097040 70 70 70 
-0.648649 -0.164736 -3.097040 73 73 73 
-0.600751 -0.160200 -3.011765 78 78 78 
-0.588162 -0.159502 -2.998629 80 80 80 
-0.577833 -0.159402 -2.996762 85 85 85 
-0.414414 -0.144144 -2.709910 85 85 85 
-0.405405 -0.144144 -2.709910 84 84 84 
-0.396396 -0.144144 -2.709910 82 82 82 
-0.387387 -0.144144 -2.709910 78 78 78 
-0.384439 -0.146453 -2.753318 76 76 76 
-0.375286 -0.146453 -2.753318 72 72 72 
-0.308834 -0.190052 -3.572977 59 59 59 
-0.296516 -0.189770 -3.567680 57 57 57 
-0.285078 -0.190052 -3.572977 58 58 58 
-0.241379 -0.183908 -3.457471 66 66 66 
-0.228245 -0.182596 -3.432810 94 94 94 
-0.216833 -0.182596 -3.432810 109 109 109 
-0.205128 -0.182336 -3.427920 98 98 98 
-0.192771 -0.181432 -3.410914 76 76 76 
-0.180282 -0.180282 -3.389296 74 74 74 
-0.168421 -0.179649 -3.377403 79 79 79 
-0.157193 -0.179649 -3.377403 77 77 77 
0.266667 -0.152381 -2.864762 54 54 54 
0.275862 -0.152200 -2.861355 54 54 54 
0.285375 -0.152200 -2.861355 55 55 55 
0.295062 -0.152290 -2.863058 55 55 55 
0.304581 -0.152290 -2.863058 55 55 55 
0.314099 -0.152290 -2.863058 57 57 57 
0.324002 -0.152472 -2.866468 57 57 57 
0.333532 -0.152472 -2.866468 58 58 58 
0.342246 -0.152109 -2.859655 57 57 57 
0.350711 -0.151659 -2.851185 57 57 57 
0.359126 -0.151211 -2.842764 62 62 62 
0.368142 -0.151032 -2.839410 66 66 66 
0.377581 -0.151032 -2.839410 69 69 69 
0.387021 -0.151032 -2.839410 75 75 75 
0.396694 -0.151122 -2.841086 82 82 82 
0.406860 -0.151390 -2.846126 81 81 81 
0.416322 -0.151390 -2.846126 89 89 89 
0.425281 -0.151211 -2.842764 87 87 87 
0.434731 -0.151211 -2.842764 83 83 83 
1.232787 -0.419672 -7.889836 80 80 80 
1.261084 -0.420361 -7.902791 80 80 80 
1.287356 -0.420361 -7.902791 83 83 83 
1.313629 -0.420361 -7.902791 83 83 83 
1.342105 -0.421053 -7.915789 84 84 84 
1.368421 -0.421053 -7.915789 85 85 85 
1.394737 -0.421053 -7.915789 84 84 84 
1.690566 -0.322013 -6.053836 61 61 61 
1.706399 -0.321205 -6.038645 62 62 62 
1.728643 -0.321608 -6.046231 63 63 63 
1.750943 -0.322013 -6.053836 64 64 64 
1.816774 -0.330323 -6.210064 70 70 70 
1.837419 -0.330323 -6.210064 70 70 70 
1.862872 -0.331177 -6.226132 65 65 65 
1.883571 -0.331177 -6.226132 62 62 62 
1.904269 -0.331177 -6.226132 66 66 66 
1.929961 -0.332036 -6.242282 67 67 67 
2.439394 -0.242424 -4.557576 50 50 50 
2.454545 -0.242424 -4.557576 50 50 50 
2.469697 -0.242424 -4.557576 55 55 55 
2.484848 -0.242424 -4.557576 65 65 65 
2.500000 -0.242424 -4.557576 60 60 60 
2.515152 -0.242424 -4.557576 63 63 63 
2.530303 -0.242424 -4.557576 62 62 62 
2.564885 -0.244275 -4.592366 61 61 61 
2.580153 -0.244275 -4.592366 56 56 56 
2.635659 -0.248062 -4.663566 49 49 49 
2.651163 -0.248062 -4.663566 47 47 47 
4.473934 -0.404423 -7.603159 51 51 51 
4.450000 -0.400000 -7.520000 46 46 46 
4.475000 -0.400000 -7.520000 48 48 48 
4.500000 -0.400000 -7.520000 51 51 51 
4.525000 -0.400000 -7.520000 48 48 48 
4.550000 -0.400000 -7.520000 47 47 47 
4.575000 -0.400000 -7.520000 45 45 45 
4.600000 -0.400000 -7.520000 44 44 44 
4.625000 -0.400000 -7.520000 42 42 42 
5.812500 -0.500000 -9.400000 39 39 39 
5.843750 -0.500000 -9.400000 28 28 28 
-0.684932 -0.155251 -2.747032 77 77 77 
-0.675799 -0.155251 -2.747032 80 80 80 
-0.666286 -0.155163 -2.745465 82 82 82 
-0.656036 -0.154897 -2.740774 83 83 83 
-0.646557 -0.154809 -2.739214 79 79 79 
-0.637088 -0.154721 -2.737656 77 77 77 
-0.763485 -0.188105 -3.328354 79 79 79 
-0.752420 -0.188105 -3.328354 82 82 82 
-0.741355 -0.188105 -3.328354 81 81 81 
-0.725275 -0.186813 -3.305494 80 80 80 
-0.670535 -0.175371 -3.103030 83 83 83 
-0.659794 -0.175258 -3.101031 85 85 85 
-0.659686 -0.178010 -3.149738 83 83 83 
-0.414414 -0.153153 -2.709910 55 55 55 
-0.405405 -0.153153 -2.709910 55 55 55 
-0.396396 -0.153153 -2.709910 54 54 54 
-0.387387 -0.153153 -2.709910 53 53 53 
-0.384000 -0.155429 -2.750171 53 53 53 
-0.375501 -0.155695 -2.754894 52 52 52 
-0.308377 -0.201631 -3.567680 67 67 67 
-0.296516 -0.201631 -3.567680 73 73 73 
-0.284866 -0.201780 -3.570326 75 75 75 
-0.241553 -0.195543 -3.459957 68 68 68 
-0.229555 -0.195122 -3.452511 94 94 94 
-0.216833 -0.194009 -3.432810 116 116 116 
-0.205274 -0.193870 -3.430363 109 109 109 
-0.192771 -0.192771 -3.410914 80 80 80 
-0.180282 -0.191549 -3.389296 76 76 76 
-0.168539 -0.191011 -3.379775 75 75 75 
-0.157193 -0.190877 -3.377403 72 72 72 
0.266667 -0.161905 -2.864762 57 57 57 
0.275862 -0.161712 -2.861355 56 56 56 
0.285375 -0.161712 -2.861355 57 57 57 
0.295062 -0.161808 -2.863058 57 57 57 
0.304581 -0.161808 -2.863058 58 58 58 
0.314099 -0.161808 -2.863058 60 60 60 
0.324002 -0.162001 -2.866468 61 61 61 
0.333532 -0.162001 -2.866468 64 64 64 
0.342246 -0.161616 -2.859655 65 65 65 
0.350919 -0.161233 -2.852875 68 68 68 
0.359338 -0.160756 -2.844444 75 75 75 
0.368359 -0.160567 -2.841086 82 82 82 
0.377581 -0.160472 -2.839410 86 86 86 
0.387021 -0.160472 -2.839410 89 89 89 
0.396929 -0.160662 -2.842764 92 92 92 
0.406860 -0.160852 -2.846126 91 91 91 
0.416815 -0.161042 -2.849497 96 96 96 
0.425784 -0.160852 -2.846126 99 99 99 
1.289474 -0.447368 -7.915789 94 94 94 
1.315789 -0.447368 -7.915789 91 91 91 
1.342105 -0.447368 -7.915789 90 90 90 
1.710692 -0.342138 -6.053836 59 59 59 
1.732998 -0.342569 -6.061460 58 58 58 
1.844560 -0.352332 -6.234197 67 67 67 
1.865285 -0.352332 -6.234197 64 64 64 
1.886010 -0.352332 -6.234197 62 62 62 
1.906736 -0.352332 -6.234197 67 67 67 
1.929961 -0.352789 -6.242282 68 68 68 
1.958333 -0.354167 -6.266666 63 63 63 
2.439394 -0.257576 -4.557576 53 53 53 
2.454545 -0.257576 -4.557576 54 54 54 
2.469697 -0.257576 -4.557576 57 57 57 
2.484848 -0.257576 -4.557576 65 65 65 
2.500000 -0.257576 -4.557576 63 63 63 
2.515152 -0.257576 -4.557576 69 69 69 
2.530303 -0.257576 -4.557576 69 69 69 
2.564885 -0.259542 -4.592366 66 66 66 
2.580153 -0.259542 -4.592366 62 62 62 
2.635659 -0.263566 -4.663566 54 54 54 
2.651163 -0.263566 -4.663566 55 55 55 
4.473934 -0.429700 -7.603159 52 52 52 
4.450000 -0.425000 -7.520000 51 51 51 
4.475000 -0.425000 -7.520000 51 51 51 
4.500000 -0.425000 -7.520000 47 47 47 
4.525000 -0.425000 -7.520000 41 41 41 
4.550000 -0.425000 -7.520000 45 45 45 
4.575000 -0.425000 -7.520000 41 41 41 
4.600000 -0.425000 -7.520000 33 33 33 
4.625000 -0.425000 -7.520000 28 28 28 
5.812500 -0.531250 -9.400000 26 26 26 
5.843750 -0.531250 -9.400000 23 23 23 
-0.684932 -0.164384 -2.747032 76 76 76 
-0.675414 -0.164290 -2.745465 78 78 78 
-0.665906 -0.164196 -2.743900 76 76 76 
-0.655663 -0.163916 -2.739214 75 75 75 
-0.646557 -0.163916 -2.739214 74 74 74 
-0.775623 -0.199446 -3.332964 73 73 73 
-0.764543 -0.199446 -3.332964 72 72 72 
-0.752420 -0.199170 -3.328354 71 71 71 
-0.741355 -0.199170 -3.328354 65 65 65 
-0.414414 -0.162162 -2.709910 52 52 52 
-0.405405 -0.162162 -2.709910 53 53 53 
-0.396396 -0.162162 -2.709910 54 54 54 
-0.387387 -0.162162 -2.709910 56 56 56 
-0.378378 -0.162162 -2.709910 59 59 59 
-0.308377 -0.213491 -3.567680 75 75 75 
-0.296516 -0.213491 -3.567680 79 79 79 
-0.284866 -0.213650 -3.570326 86 86 86 
-0.273200 -0.213808 -3.572977 88 88 88 
-0.260163 -0.212860 -3.557132 82 82 82 
-0.244720 -0.209760 -3.505317 76 76 76 
-0.230548 -0.207493 -3.467435 92 92 92 
-0.217609 -0.206156 -3.445096 112 112 112 
-0.205421 -0.205421 -3.432810 111 111 111 
-0.193045 -0.204400 -3.415756 85 85 85 
-0.180282 -0.202817 -3.389296 79 79 79 
-0.168539 -0.202247 -3.379775 73 73 73 
-0.157193 -0.202105 -3.377403 70 70 70 
-0.145965 -0.202105 -3.377403 70 70 70 
0.266508 -0.171327 -2.863058 71 71 71 
0.275862 -0.171225 -2.861355 72 72 72 
0.285375 -0.171225 -2.861355 77 77 77 
0.295062 -0.171327 -2.863058 81 81 81 
0.304581 -0.171327 -2.863058 84 84 84 
0.314099 -0.171327 -2.863058 85 85 85 
0.324002 -0.171531 -2.866468 86 86 86 
0.333532 -0.171531 -2.866468 90 90 90 
0.342653 -0.171327 -2.863058 91 91 91 
0.351127 -0.170819 -2.854567 90 90 90 
0.359551 -0.170313 -2.846126 89 89 89 
0.368576 -0.170112 -2.842764 88 88 88 
0.378027 -0.170112 -2.842764 87 87 87 
0.387478 -0.170112 -2.842764 85 85 85 
0.397163 -0.170213 -2.844444 83 83 83 
0.407583 -0.170616 -2.851185 81 81 81 
0.417556 -0.170819 -2.854567 78 78 78 
0.427046 -0.170819 -2.854567 75 75 75 
1.823834 -0.373057 -6.234197 66 66 66 
1.844560 -0.373057 -6.234197 63 63 63 
1.867704 -0.373541 -6.242282 62 62 62 
1.888457 -0.373541 -6.242282 62 62 62 
1.909209 -0.373541 -6.242282 62 62 62 
1.932468 -0.374026 -6.250390 63 63 63 
1.958333 -0.375000 -6.266666 60 60 60 
3.073229 -0.345738 -5.777671 53 53 53 
2.439394 -0.272727 -4.557576 56 56 56 
2.454545 -0.272727 -4.557576 59 59 59 
2.469697 -0.272727 -4.557576 58 58 58 
2.484848 -0.272727 -4.557576 62 62 62 
2.500000 -0.272727 -4.557576 65 65 65 
2.515152 -0.272727 -4.557576 71 71 71 
2.530303 -0.272727 -4.557576 71 71 71 
2.564885 -0.274809 -4.592366 72 72 72 
2.580153 -0.274809 -4.592366 66 66 66 
2.635659 -0.279070 -4.663566 56 56 56 
2.651163 -0.279070 -4.663566 56 56 56 
4.473934 -0.454976 -7.603159 49 49 49 
4.450000 -0.450000 -7.520000 47 47 47 
4.475000 -0.450000 -7.520000 44 44 44 
4.500000 -0.450000 -7.520000 41 41 41 
4.525000 -0.450000 -7.520000 36 36 36 
4.550000 -0.450000 -7.520000 39 39 39 
4.575000 -0.450000 -7.520000 32 32 32 
4.600000 -0.450000 -7.520000 25 25 25 
4.625000 -0.450000 -7.520000 24 24 24 
5.812500 -0.562500 -9.400000 26 26 26 
5.843750 -0.562500 -9.400000 25 25 25 
-0.835073 -0.211552 -3.349200 56 56 56 
-0.675414 -0.173417 -2.745465 55 55 55 
-0.665906 -0.173318 -2.743900 54 54 54 
-0.655663 -0.173022 -2.739214 52 52 52 
-0.646557 -0.173022 -2.739214 53 53 53 
-0.775623 -0.210526 -3.332964 55 55 55 
-0.764543 -0.210526 -3.332964 55 55 55 
-0.752420 -0.210235 -3.328354 52 52 52 
-0.741355 -0.210235 -3.328354 50 50 50 
-0.609619 -0.189881 -3.006121 50 50 50 
-0.414414 -0.171171 -2.709910 61 61 61 
-0.405405 -0.171171 -2.709910 62 62 62 
-0.396396 -0.171171 -2.709910 63 63 63 
-0.387387 -0.171171 -2.709910 62 62 62 
-0.378378 -0.171171 -2.709910 66 66 66 
-0.369369 -0.171171 -2.709910 64 64 64 
-0.308605 -0.225519 -3.570326 75 75 75 
-0.296736 -0.225519 -3.570326 77 77 77 
-0.284866 -0.225519 -3.570326 86 86 86 
-0.272997 -0.225519 -3.570326 90 90 90 
-0.259779 -0.224354 -3.551882 90 90 90 
-0.245794 -0.222385 -3.520702 86 86 86 
-0.234089 -0.222385 -3.520702 92 92 92 
-0.218862 -0.218862 -3.464939 107 107 107 
-0.206156 -0.217609 -3.445096 106 106 106 
-0.193182 -0.215909 -3.418182 83 83 83 
-0.180409 -0.214235 -3.391684 77 77 77 
-0.168539 -0.213483 -3.379775 72 72 72 
-0.157193 -0.213333 -3.377403 69 69 69 
-0.145965 -0.213333 -3.377403 69 69 69 
0.266508 -0.180845 -2.863058 83 83 83 
0.275862 -0.180737 -2.861355 86 86 86 
0.285375 -0.180737 -2.861355 96 96 96 
0.295062 -0.180845 -2.863058 97 97 97 
0.304581 -0.180845 -2.863058 94 94 94 
0.314099 -0.180845 -2.863058 89 89 89 
0.324002 -0.181060 -2.866468 83 83 83 
0.333532 -0.181060 -2.866468 78 78 78 
0.342653 -0.180845 -2.863058 72 72 72 
0.351335 -0.180415 -2.856261 67 67 67 
0.359551 -0.179775 -2.846126 63 63 63 
0.368794 -0.179669 -2.844444 60 60 60 
0.378027 -0.179563 -2.842764 60 60 60 
0.387707 -0.179669 -2.844444 60 60 60 
0.397163 -0.179669 -2.844444 63 63 63 
0.408794 -0.180630 -2.859655 65 65 65 
0.418301 -0.180630 -2.859655 59 59 59 
0.428316 -0.180845 -2.863058 58 58 58 
1.826200 -0.394293 -6.242282 66 66 66 
1.846952 -0.394293 -6.242282 62 62 62 
1.867704 -0.394293 -6.242282 60 60 60 
1.888457 -0.394293 -6.242282 61 61 61 
1.909209 -0.394293 -6.242282 59 59 59 
1.934981 -0.395319 -6.258517 58 58 58 
1.958333 -0.395833 -6.266666 56 56 56 
3.065868 -0.364072 -5.763832 51 51 51 
2.439394 -0.287879 -4.557576 53 53 53 
2.454545 -0.287879 -4.557576 62 62 62 
2.469697 -0.287879 -4.557576 58 58 58 
2.484848 -0.287879 -4.557576 60 60 60 
2.500000 -0.287879 -4.557576 66 66 66 
2.515152 -0.287879 -4.557576 70 70 70 
2.532701 -0.288152 -4.561895 68 68 68 
2.564885 -0.290076 -4.592366 68 68 68 
2.580153 -0.290076 -4.592366 66 66 66 
2.635659 -0.294574 -4.663566 55 55 55 
2.651163 -0.294574 -4.663566 53 53 53 
4.473934 -0.480253 -7.603159 46 46 46 
4.450000 -0.475000 -7.520000 44 44 44 
4.475000 -0.475000 -7.520000 44 44 44 
4.500000 -0.475000 -7.520000 40 40 40 
4.525000 -0.475000 -7.520000 35 35 35 
4.550000 -0.475000 -7.520000 31 31 31 
4.575000 -0.475000 -7.520000 25 25 25 
4.600000 -0.475000 -7.520000 24 24 24 
4.625000 -0.475000 -7.520000 28 28 28 
5.812500 -0.593750 -9.400000 31 31 31 
5.843750 -0.593750 -9.400000 28 28 28 
-0.835655 -0.222841 -3.351532 51 51 51 
-0.675799 -0.182648 -2.747032 51 51 51 
-0.665906 -0.182440 -2.743900 51 51 51 
-0.655663 -0.182129 -2.739214 50 50 50 
-0.646557 -0.182129 -2.739214 52 52 52 
-0.775623 -0.221607 -3.332964 56 56 56 
-0.764543 -0.221607 -3.332964 55 55 55 
-0.752420 -0.221300 -3.328354 53 53 53 
-0.741355 -0.221300 -3.328354 52 52 52 
-0.619613 -0.199875 -3.006121 55 55 55 
-0.605835 -0.198634 -2.987461 55 55 55 
-0.595903 -0.198634 -2.987461 56 56 56 
-0.414414 -0.180180 -2.709910 68 68 68 
-0.405405 -0.180180 -2.709910 70 70 70 
-0.396396 -0.180180 -2.709910 72 72 72 
-0.387387 -0.180180 -2.709910 69 69 69 
-0.378378 -0.180180 -2.709910 69 69 69 
-0.369369 -0.180180 -2.709910 70 70 70 
-0.308834 -0.237565 -3.572977 70 70 70 
-0.296956 -0.237565 -3.572977 74 74 74 
-0.285078 -0.237565 -3.572977 81 81 81 
-0.273403 -0.237741 -3.575631 82 82 82 
-0.259779 -0.236162 -3.551882 82 82 82 
-0.246154 -0.234432 -3.525861 85 85 85 
-0.234089 -0.234089 -3.520702 89 89 89 
-0.218862 -0.230382 -3.464939 101 101 101 
-0.206156 -0.229062 -3.445096 99 99 99 
-0.193182 -0.227273 -3.418182 80 80 80 
-0.180409 -0.225511 -3.391684 74 74 74 
-0.168539 -0.224719 -3.379775 71 71 71 
-0.157193 -0.224561 -3.377403 68 68 68 
-0.145965 -0.224561 -3.377403 68 68 68 
0.266508 -0.190363 -2.863058 67 67 67 
0.275862 -0.190250 -2.861355 72 72 72 
0.285375 -0.190250 -2.861355 86 86 86 
0.295062 -0.190363 -2.863058 87 87 87 
0.304581 -0.190363 -2.863058 85 85 85 
0.314286 -0.190476 -2.864762 82 82 82 
0.324002 -0.190590 -2.866468 79 79 79 
0.333532 -0.190590 -2.866468 73 73 73 
0.342653 -0.190363 -2.863058 67 67 67 
0.351335 -0.189911 -2.856261 62 62 62 
0.359551 -0.189237 -2.846126 58 58 58 
0.368794 -0.189125 -2.844444 57 57 57 
0.378251 -0.189125 -2.844444 58 58 58 
0.387707 -0.189125 -2.844444 60 60 60 
0.397633 -0.189349 -2.847811 61 61 61 
0.409280 -0.190363 -2.863058 64 64 64 
0.418798 -0.190363 -2.863058 59 59 59 
0.428827 -0.190590 -2.866468 59 59 59 
1.112228 -0.268007 -4.030820 57 57 57 
1.826200 -0.415045 -6.242282 65 65 65 
1.846952 -0.415045 -6.242282 63 63 63 
1.867704 -0.415045 -6.242282 63 63 63 
1.888457 -0.415045 -6.242282 65 65 65 
1.909209 -0.415045 -6.242282 61 61 61 
1.934981 -0.416125 -6.258517 60 60 60 
1.958333 -0.416667 -6.266666 57 57 57 
1.979167 -0.416667 -6.266666 53 53 53 
3.062201 -0.382775 -5.756938 51 51 51 
2.439394 -0.303030 -4.557576 50 50 50 
2.454545 -0.303030 -4.557576 58 58 58 
2.469697 -0.303030 -4.557576 60 60 60 
2.484848 -0.303030 -4.557576 63 63 63 
2.500000 -0.303030 -4.557576 69 69 69 
2.517535 -0.303318 -4.561895 68 68 68 
2.532701 -0.303318 -4.561895 68 68 68 
2.564885 -0.305344 -4.592366 68 68 68 
2.580153 -0.305344 -4.592366 67 67 67 
2.635659 -0.310078 -4.663566 59 59 59 
2.651163 -0.310078 -4.663566 55 55 55 
4.473934 -0.505529 -7.603159 41 41 41 
4.450000 -0.500000 -7.520000 42 42 42 
4.475000 -0.500000 -7.520000 42 42 42 
4.500000 -0.500000 -7.520000 37 37 37 
4.525000 -0.500000 -7.520000 35 35 35 
4.550000 -0.500000 -7.520000 30 30 30 
4.575000 -0.500000 -7.520000 25 25 25 
4.600000 -0.500000 -7.520000 26 26 26 
4.625000 -0.500000 -7.520000 30 30 30 
5.812500 -0.625000 -9.400000 32 32 32 
5.843750 -0.625000 -9.400000 29 29 29 
-0.835655 -0.233983 -3.351532 53 53 53 
-0.675029 -0.191562 -2.743900 56 56 56 
-0.665906 -0.191562 -2.743900 56 56 56 
-0.655663 -0.191235 -2.739214 55 55 55 
-0.646557 -0.191235 -2.739214 60 60 60 
-0.776161 -0.232848 -3.335274 64 64 64 
-0.765073 -0.232848 -3.335274 63 63 63 
-0.752941 -0.232526 -3.330657 60 60 60 
-0.741868 -0.232526 -3.330657 58 58 58 
-0.630789 -0.210263 -3.011765 64 64 64 
-0.618069 -0.209346 -2.998629 63 63 63 
-0.605835 -0.208566 -2.987461 66 66 66 
-0.595903 -0.208566 -2.987461 70 70 70 
-0.414414 -0.189189 -2.709910 75 75 75 
-0.405405 -0.189189 -2.709910 76 76 76 
-0.396396 -0.189189 -2.709910 79 79 79 
-0.387387 -0.189189 -2.709910 77 77 77 
-0.378378 -0.189189 -2.709910 73 73 73 
-0.369369 -0.189189 -2.709910 73 73 73 
-0.308834 -0.249443 -3.572977 66 66 66 
-0.296956 -0.249443 -3.572977 71 71 71 
-0.285502 -0.249814 -3.578290 77 77 77 
-0.246334 -0.246334 -3.528446 83 83 83 
-0.231381 -0.242950 -3.479971 86 86 86 
-0.217609 -0.240515 -3.445096 96 96 96 
-0.204982 -0.239146 -3.425480 95 95 95 
-0.192908 -0.238298 -3.413333 81 81 81 
-0.180282 -0.236620 -3.389296 73 73 73 
-0.168539 -0.235955 -3.379775 70 70 70 
-0.157193 -0.235789 -3.377403 70 70 70 
-0.145965 -0.235789 -3.377403 72 72 72 
0.276026 -0.199881 -2.863058 70 70 70 
0.285544 -0.199881 -2.863058 80 80 80 
0.295238 -0.200000 -2.864762 84 84 84 
0.304762 -0.200000 -2.864762 85 85 85 
0.314473 -0.200119 -2.866468 83 83 83 
0.324389 -0.200358 -2.869887 78 78 78 
0.333930 -0.200358 -2.869887 73 73 73 
0.342857 -0.200000 -2.864762 68 68 68 
0.352171 -0.199881 -2.863058 64 64 64 
0.360831 -0.199407 -2.856261 61 61 61 
0.369012 -0.198699 -2.846126 59 59 59 
0.378474 -0.198699 -2.846126 59 59 59 
0.388166 -0.198817 -2.847811 60 60 60 
0.400000 -0.200000 -2.864762 59 59 59 
0.410256 -0.200358 -2.869887 60 60 60 
0.419797 -0.200358 -2.869887 58 58 58 
1.098827 -0.281407 -4.030820 57 57 57 
1.109440 -0.280702 -4.020718 56 56 56 
1.124686 -0.281172 -4.027448 58 58 58 
1.823834 -0.435233 -6.234197 66 66 66 
1.846952 -0.435798 -6.242282 65 65 65 
1.867704 -0.435798 -6.242282 68 68 68 
1.888457 -0.435798 -6.242282 70 70 70 
1.909209 -0.435798 -6.242282 66 66 66 
1.932468 -0.436364 -6.250390 68 68 68 
1.955787 -0.436931 -6.258517 63 63 63 
1.979167 -0.437500 -6.266666 61 61 61 
1.292929 -0.282828 -4.051178 62 62 62 
3.062201 -0.401914 -5.756938 53 53 53 
2.439394 -0.318182 -4.557576 51 51 51 
2.454545 -0.318182 -4.557576 52 52 52 
2.469697 -0.318182 -4.557576 57 57 57 
2.484848 -0.318182 -4.557576 62 62 62 
2.500000 -0.318182 -4.557576 66 66 66 
2.517535 -0.318483 -4.561895 64 64 64 
2.535104 -0.318786 -4.566224 66 66 66 
2.564885 -0.320611 -4.592366 67 67 67 
2.580153 -0.320611 -4.592366 68 68 68 
2.635659 -0.325581 -4.663566 61 61 61 
2.651163 -0.325581 -4.663566 57 57 57 
4.473934 -0.530806 -7.603159 39 39 39 
4.450000 -0.525000 -7.520000 35 35 35 
4.475000 -0.525000 -7.520000 35 35 35 
4.500000 -0.525000 -7.520000 34 34 34 
4.525000 -0.525000 -7.520000 35 35 35 
4.550000 -0.525000 -7.520000 32 32 32 
4.575000 -0.525000 -7.520000 27 27 27 
4.600000 -0.525000 -7.520000 28 28 28 
4.625000 -0.525000 -7.520000 33 33 33 
5.812500 -0.656250 -9.400000 33 33 33 
5.843750 -0.656250 -9.400000 29 29 29 
-0.684932 -0.200913 -2.747032 61 61 61 
-0.675029 -0.200684 -2.743900 63 63 63 
-0.665527 -0.200570 -2.742336 65 65 65 
-0.655290 -0.200228 -2.737656 67 67 67 
-0.646189 -0.200228 -2.737656 70 70 70 
-0.776699 -0.244105 -3.337587 73 73 73 
-0.765603 -0.244105 -3.337587 73 73 73 
-0.753463 -0.243767 -3.332964 68 68 68 
-0.742382 -0.243767 -3.332964 65 65 65 
-0.628429 -0.219451 -3.000499 66 66 66 
-0.617299 -0.219042 -2.994897 68 68 68 
-0.605835 -0.218498 -2.987461 74 74 74 
-0.595903 -0.218498 -2.987461 80 80 80 
-0.405405 -0.198198 -2.709910 79 79 79 
-0.396396 -0.198198 -2.709910 80 80 80 
-0.387387 -0.198198 -2.709910 80 80 80 
-0.378378 -0.198198 -2.709910 76 76 76 
-0.369369 -0.198198 -2.709910 72 72 72 
-0.309064 -0.261516 -3.575631 80 80 80 
-0.297177 -0.261516 -3.575631 84 84 84 
-0.229391 -0.252330 -3.450036 92 92 92 
-0.216524 -0.250712 -3.427920 97 97 97 
-0.204691 -0.250178 -3.420611 103 103 103 
-0.192635 -0.249292 -3.408499 98 98 98 
-0.180155 -0.247713 -3.386910 94 94 94 
-0.168539 -0.247191 -3.379775 91 91 91 
-0.157083 -0.246844 -3.375035 87 87 87 
-0.145863 -0.246844 -3.375035 86 86 86 
0.276190 -0.209524 -2.864762 76 76 76 
0.285714 -0.209524 -2.864762 81 81 81 
0.295238 -0.209524 -2.864762 81 81 81 
0.304943 -0.209649 -2.866468 84 84 84 
0.314660 -0.209774 -2.868176 80 80 80 
0.324776 -0.210149 -2.873313 69 69 69 
0.334728 -0.210400 -2.876748 63 63 63 
0.343470 -0.209899 -2.869887 61 61 61 
0.352801 -0.209774 -2.868176 60 60 60 
0.379822 -0.208902 -2.856261 58 58 58 
0.403846 -0.211538 -2.892308 59 59 59 
1.111297 -0.294561 -4.027448 56 56 56 
1.474576 -0.372881 -5.098305 59 59 59 
1.491525 -0.372881 -5.098305 65 65 65 
1.844560 -0.455959 -6.234197 65 65 65 
1.867704 -0.456550 -6.242282 65 65 65 
1.888457 -0.456550 -6.242282 69 69 69 
1.909209 -0.456550 -6.242282 67 67 67 
1.932468 -0.457143 -6.250390 72 72 72 
1.953247 -0.457143 -6.250390 69 69 69 
1.276238 -0.295550 -4.040974 64 64 64 
1.289672 -0.295550 -4.040974 67 67 67 
1.306397 -0.296296 -4.051178 66 66 66 
3.058542 -0.420550 -5.750060 55 55 55 
2.439394 -0.333333 -4.557576 51 51 51 
2.454545 -0.333333 -4.557576 49 49 49 
2.469697 -0.333333 -4.557576 54 54 54 
2.484848 -0.333333 -4.557576 56 56 56 
2.500000 -0.333333 -4.557576 61 61 61 
2.517535 -0.333649 -4.561895 67 67 67 
2.535104 -0.333966 -4.566224 69 69 69 
