ply
format ascii 1.0
element vertex 1185
property float x
property float y
property float z
property uchar red
property uchar green
property uchar blue
end_header
0.476596 0.953192 -6.826666 109 109 109 
0.500711 0.955903 -6.846088 61 61 61 
0.559271 1.021277 -7.314285 46 46 46 
0.583587 1.021277 -7.314285 43 43 43 
0.609756 1.024390 -7.336585 44 44 44 
0.761905 0.914286 -6.548027 53 53 53 
0.720000 0.840000 -6.016000 54 54 54 
2.750000 2.625000 -18.799999 52 52 52 
2.812500 2.625000 -18.799999 55 55 55 
0.820513 0.749164 -5.365440 54 54 54 
0.839286 0.750000 -5.371428 50 50 50 
0.858101 0.750838 -5.377430 57 57 57 
0.986163 0.845283 -6.053836 68 68 68 
1.016518 0.853875 -6.115375 86 86 86 
1.036849 0.853875 -6.115375 127 127 127 
1.054499 0.851711 -6.099873 160 160 160 
1.073418 0.850633 -6.092152 163 163 163 
1.096447 0.852792 -6.107614 156 156 156 
1.112516 0.849558 -6.084450 137 137 137 
1.076923 0.646154 -4.627692 153 153 153 
1.092308 0.646154 -4.627692 156 156 156 
1.107692 0.646154 -4.627692 172 172 172 
1.124158 0.646776 -4.632146 172 172 172 
3.711599 2.106583 -15.087147 146 146 146 
3.761755 2.106583 -15.087147 146 146 146 
3.800000 2.100000 -15.039999 139 139 139 
3.850000 2.100000 -15.039999 151 151 151 
3.900000 2.100000 -15.039999 156 156 156 
3.974843 2.113208 -15.134590 127 127 127 
4.012539 2.106583 -15.087147 133 133 133 
4.050000 2.100000 -15.039999 175 175 175 
4.036923 2.067692 -14.808615 157 157 157 
4.086154 2.067692 -14.808615 162 162 162 
3.976331 1.988166 -14.239053 188 188 188 
3.736264 1.846154 -13.221977 213 213 213 
3.739130 1.826087 -13.078260 222 222 222 
3.782609 1.826087 -13.078260 213 213 213 
3.525424 1.627119 -11.653268 212 212 212 
3.529976 1.611511 -11.541487 206 206 206 
3.492958 1.577465 -11.297652 201 201 201 
3.606715 1.611511 -11.541487 197 197 197 
4.141689 1.831063 -13.113896 195 195 195 
4.129032 1.806452 -12.937634 183 183 183 
1.272131 0.550820 -3.944918 164 164 164 
1.283142 0.549918 -3.938461 101 101 101 
1.296236 0.549918 -3.938461 47 47 47 
1.310401 0.550369 -3.941687 39 39 39 
1.791438 0.737651 -5.282986 37 37 37 
1.807018 0.736842 -5.277193 38 38 38 
1.818579 0.734426 -5.259891 39 39 39 
1.828074 0.731230 -5.236997 43 43 43 
1.837487 0.728061 -5.214301 50 50 50 
1.848812 0.725702 -5.197408 60 60 60 
1.862069 0.724138 -5.186207 80 80 80 
3.910314 1.506727 -10.791031 118 118 118 
4.064665 1.551963 -11.115011 182 182 182 
4.101617 1.551963 -11.115011 204 204 204 
4.502512 1.688442 -12.092462 202 202 202 
4.025586 1.432836 -10.261833 218 218 218 
4.016878 1.417722 -10.153586 225 225 225 
4.008351 1.402923 -10.047599 215 215 215 
4.041754 1.402923 -10.047599 213 213 213 
4.075157 1.402923 -10.047599 201 201 201 
3.681895 1.137056 -8.143485 71 71 71 
3.696459 1.133221 -8.116020 54 54 54 
3.717172 1.131313 -8.102357 63 63 63 
3.756757 1.135135 -8.129729 62 62 62 
6.328358 1.671642 -11.972138 102 102 102 
5.727069 1.503356 -10.766890 97 97 97 
5.762864 1.503356 -10.766890 89 89 89 
5.785714 1.500000 -10.742857 99 99 99 
5.808463 1.496659 -10.718930 122 122 122 
5.818182 1.490022 -10.671396 120 120 120 
5.827815 1.483444 -10.624282 83 83 83 
5.863135 1.483444 -10.624282 66 66 66 
7.351351 1.816216 -13.007567 64 64 64 
7.374663 1.811321 -12.972507 65 65 65 
7.498638 1.831063 -13.113896 58 58 58 
6.060606 1.454545 -10.417315 56 56 56 
6.095238 1.454545 -10.417315 46 46 46 
-4.301075 2.351254 -17.250179 194 194 194 
-4.243728 2.351254 -17.250179 191 191 191 
-4.069686 2.285714 -16.769337 190 190 190 
-4.125000 2.562500 -18.799999 183 183 183 
-4.062500 2.562500 -18.799999 178 178 178 
-3.190031 2.043614 -14.993146 178 178 178 
-3.875000 2.562500 -18.799999 179 179 179 
-3.812500 2.562500 -18.799999 177 177 177 
-3.750000 2.562500 -18.799999 175 175 175 
-3.687500 2.562500 -18.799999 175 175 175 
-3.625000 2.562500 -18.799999 173 173 173 
-3.562500 2.562500 -18.799999 169 169 169 
-0.751678 0.628955 -4.614381 144 144 144 
-0.729345 0.622982 -4.570560 141 141 141 
-0.713472 0.622391 -4.566224 142 142 142 
-0.673527 0.613658 -4.502151 148 148 148 
-0.566828 0.528180 -3.875040 147 147 147 
-0.549082 0.523543 -3.841021 148 148 148 
-0.531646 0.518987 -3.807595 149 149 149 
-0.525641 0.525641 -3.856410 149 149 149 
-0.269393 0.394468 -2.894047 118 118 118 
-0.258528 0.392579 -2.880191 138 138 138 
-0.248953 0.392579 -2.880191 124 124 124 
-0.238521 0.391175 -2.869887 93 93 93 
-0.228980 0.391175 -2.869887 83 83 83 
-0.219048 0.390476 -2.864762 77 77 77 
-0.208902 0.389318 -2.856261 69 69 69 
-0.218579 1.792350 -13.149726 75 75 75 
-0.036199 1.484163 -10.888687 79 79 79 
0.000000 1.470852 -10.791031 81 81 81 
0.035320 1.448124 -10.624282 84 84 84 
0.052718 1.080725 -7.928830 103 103 103 
0.214925 0.979104 -7.183283 170 170 170 
0.238095 0.976190 -7.161904 150 150 150 
0.223919 0.834606 -6.123155 133 133 133 
0.319624 0.770858 -5.655464 114 114 114 
0.338425 0.770858 -5.655464 119 119 119 
0.429986 0.927864 -6.807355 126 126 126 
0.475921 0.929178 -6.816997 114 114 114 
0.499291 0.930496 -6.826666 69 69 69 
0.558422 0.995448 -7.303186 45 45 45 
0.583587 0.996960 -7.314285 38 38 38 
0.609756 1.000000 -7.336585 39 39 39 
0.699126 0.818976 -6.008489 49 49 49 
0.719101 0.818976 -6.008489 50 50 50 
0.740926 0.821026 -6.023529 46 46 46 
0.801782 0.730512 -5.359465 48 48 48 
0.819599 0.730512 -5.359465 51 51 51 
0.837416 0.730512 -5.359465 46 46 46 
0.856187 0.731327 -5.365440 53 53 53 
0.875978 0.732961 -5.377430 63 63 63 
1.017812 0.834606 -6.123155 78 78 78 
1.040816 0.836735 -6.138775 110 110 110 
1.059873 0.835669 -6.130955 141 141 141 
1.074778 0.831432 -6.099873 159 159 159 
1.093671 0.830380 -6.092152 151 151 151 
1.112516 0.829330 -6.084450 137 137 137 
1.080039 0.632594 -4.641080 161 161 161 
1.092308 0.630769 -4.627692 167 167 167 
1.107692 0.630769 -4.627692 176 176 176 
1.126326 0.632594 -4.641080 181 181 181 
3.700000 2.050000 -15.039999 154 154 154 
3.750000 2.050000 -15.039999 151 151 151 
3.800000 2.050000 -15.039999 153 153 153 
3.850000 2.050000 -15.039999 152 152 152 
3.900000 2.050000 -15.039999 152 152 152 
3.962383 2.056426 -15.087147 130 130 130 
4.000000 2.050000 -15.039999 118 118 118 
4.037383 2.043614 -14.993146 159 159 159 
4.049383 2.024691 -14.854321 172 172 172 
4.098765 2.024691 -14.854321 186 186 186 
3.769863 1.797260 -13.185753 222 222 222 
3.538461 1.576923 -11.569230 200 200 200 
3.484777 1.536300 -11.271194 186 186 186 
3.530516 1.539906 -11.297652 168 168 168 
1.273175 0.538146 -3.948154 170 170 170 
1.284193 0.537265 -3.941687 113 113 113 
1.297297 0.537265 -3.941687 49 49 49 
1.310401 0.537265 -3.941687 37 37 37 
1.326765 0.538588 -3.951396 38 38 38 
1.789474 0.719298 -5.277193 39 39 39 
1.807018 0.719298 -5.277193 40 40 40 
1.820569 0.717724 -5.265646 42 42 42 
1.836066 0.716940 -5.259891 47 47 47 
1.839479 0.711497 -5.219956 58 58 58 
1.854821 0.710726 -5.214301 69 69 69 
1.882353 0.714597 -5.242702 85 85 85 
3.910314 1.470852 -10.791031 114 114 114 
3.937360 1.467561 -10.766890 175 175 175 
3.973154 1.467561 -10.766890 206 206 206 
4.091324 1.497717 -10.988128 204 204 204 
4.683938 1.699482 -12.468393 211 211 211 
4.026031 1.422994 -10.439913 205 205 205 
4.025806 1.410753 -10.350107 205 205 205 
4.017021 1.395745 -10.240000 206 206 206 
4.008421 1.381053 -10.132210 216 216 216 
4.008351 1.369520 -10.047599 219 219 219 
4.041754 1.369520 -10.047599 205 205 205 
4.075157 1.369520 -10.047599 200 200 200 
4.117155 1.372385 -10.068619 171 171 171 
2.436836 0.774498 -5.682172 150 150 150 
2.452830 0.773585 -5.675471 151 151 151 
3.669477 1.106239 -8.116020 78 78 78 
3.684034 1.102521 -8.088739 54 54 54 
3.704698 1.100671 -8.075168 58 58 58 
3.737815 1.102521 -8.088739 61 61 61 
6.311558 1.648241 -12.092462 101 101 101 
6.335840 1.644110 -12.062155 80 80 80 
5.788764 1.474157 -10.815281 101 101 101 
5.798658 1.467561 -10.766890 129 129 129 
5.808463 1.461025 -10.718930 126 126 126 
5.792494 1.448124 -10.624282 117 117 117 
5.802198 1.441758 -10.577582 99 99 99 
5.824562 1.438596 -10.554385 76 76 76 
5.872528 1.441758 -10.577582 77 77 77 
6.057907 1.461025 -10.718930 62 62 62 
6.039735 1.448124 -10.624282 63 63 63 
7.417790 1.768194 -12.972507 59 59 59 
6.025974 1.419913 -10.417315 42 42 42 
6.021505 1.410753 -10.350107 50 50 50 
6.055914 1.410753 -10.350107 55 55 55 
6.103448 1.413793 -10.372414 55 55 55 
-4.301075 2.293907 -17.250179 192 192 192 
-4.139860 2.237762 -16.827971 191 191 191 
-3.182561 1.743869 -13.113896 189 189 189 
-3.138965 1.743869 -13.113896 188 188 188 
-4.125000 2.500000 -18.799999 180 180 180 
-4.062500 2.500000 -18.799999 177 177 177 
-4.000000 2.500000 -18.799999 175 175 175 
-3.937500 2.500000 -18.799999 177 177 177 
-3.875000 2.500000 -18.799999 176 176 176 
-3.812500 2.500000 -18.799999 176 176 176 
-3.750000 2.500000 -18.799999 176 176 176 
-3.687500 2.500000 -18.799999 175 175 175 
-3.625000 2.500000 -18.799999 171 171 171 
-3.441509 2.415094 -18.161509 168 168 168 
-3.381132 2.415094 -18.161509 166 166 166 
-0.586797 0.521597 -3.922412 149 149 149 
-0.570965 0.519059 -3.903325 149 149 149 
-0.553945 0.515298 -3.875040 151 151 151 
-0.541063 0.515298 -3.875040 152 152 152 
-0.532900 0.519903 -3.909667 151 151 151 
-0.273337 0.390482 -2.936424 129 129 129 
-0.259771 0.384847 -2.894047 133 133 133 
-0.250000 0.384615 -2.892308 105 105 105 
-0.239378 0.383004 -2.880191 84 84 84 
-0.228980 0.381634 -2.869887 79 79 79 
-0.218398 0.379822 -2.856261 73 73 73 
-0.208407 0.378922 -2.849497 66 66 66 
-0.198464 0.378027 -2.842764 65 65 65 
-0.301887 2.415094 -18.161509 69 69 69 
-0.241509 2.415094 -18.161509 75 75 75 
-0.179775 2.397004 -18.025467 80 80 80 
-0.118519 2.370370 -17.825184 79 79 79 
-0.059041 2.361624 -17.759409 78 78 78 
0.000000 2.361624 -17.759409 80 80 80 
0.170213 0.972644 -7.314285 189 189 189 
0.191904 0.959520 -7.215592 187 187 187 
0.214925 0.955224 -7.183283 182 182 182 
0.238450 0.953800 -7.172578 165 165 165 
0.492997 0.896359 -6.740616 91 91 91 
0.559271 0.972644 -7.314285 49 49 49 
0.585366 0.975610 -7.336585 38 38 38 
0.678304 0.798005 -6.000997 49 49 49 
0.699126 0.799001 -6.008489 48 48 48 
0.720000 0.800000 -6.016000 48 48 48 
0.740926 0.801001 -6.023529 43 43 43 
0.802676 0.713489 -5.365440 44 44 44 
0.818687 0.711902 -5.353504 52 52 52 
0.836485 0.711902 -5.353504 50 50 50 
0.855234 0.712695 -5.359465 54 54 54 
0.875978 0.715084 -5.377430 60 60 60 
1.023018 0.818414 -6.154476 71 71 71 
1.043478 0.818414 -6.154476 97 97 97 
1.063939 0.818414 -6.154476 123 123 123 
1.080255 0.815287 -6.130955 139 139 139 
1.096447 0.812183 -6.107614 133 133 133 
1.112516 0.809102 -6.084450 128 128 128 
1.085271 0.620155 -4.663566 161 161 161 
1.095468 0.617165 -4.641080 160 160 160 
1.110897 0.617165 -4.641080 169 169 169 
1.127413 0.617761 -4.645560 178 178 178 
3.700000 2.000000 -15.039999 154 154 154 
3.750000 2.000000 -15.039999 143 143 143 
3.800000 2.000000 -15.039999 145 145 145 
3.850000 2.000000 -15.039999 156 156 156 
3.900000 2.000000 -15.039999 156 156 156 
3.950000 2.000000 -15.039999 132 132 132 
4.000000 2.000000 -15.039999 118 118 118 
4.037383 1.993770 -14.993146 164 164 164 
4.087227 1.993770 -14.993146 182 182 182 
3.484777 1.498829 -11.271194 166 166 166 
1.274220 0.525452 -3.951396 168 168 168 
1.285246 0.524590 -3.944918 121 121 121 
1.299426 0.525020 -3.948154 56 56 56 
1.313629 0.525452 -3.951396 38 38 38 
1.332234 0.527617 -3.967683 39 39 39 
1.791438 0.702525 -5.282986 42 42 42 
1.807018 0.701754 -5.277193 44 44 44 
1.824561 0.701754 -5.277193 47 47 47 
1.838074 0.700219 -5.265646 51 51 51 
1.853552 0.699454 -5.259891 63 63 63 
1.871038 0.699454 -5.259891 75 75 75 
1.892662 0.700986 -5.271413 88 88 88 
3.901566 1.431767 -10.766890 109 109 109 
3.928571 1.428571 -10.742857 163 163 163 
3.955456 1.425390 -10.718930 205 205 205 
3.955850 1.412804 -10.624282 207 207 207 
4.127854 1.461187 -10.988128 210 210 210 
4.750000 1.666667 -12.533333 222 222 222 
4.791667 1.666667 -12.533333 220 220 220 
4.026031 1.388286 -10.439913 205 205 205 
4.034483 1.379310 -10.372414 195 195 195 
4.051502 1.373391 -10.327896 188 188 188 
4.051064 1.361702 -10.240000 192 192 192 
4.042105 1.347368 -10.132210 211 211 211 
4.050209 1.338912 -10.068619 195 195 195 
4.109474 1.347368 -10.132210 186 186 186 
2.433962 0.754717 -5.675471 127 127 127 
2.452830 0.754717 -5.675471 129 129 129 
2.468787 0.753828 -5.668787 136 136 136 
3.648649 1.081081 -8.129729 105 105 105 
3.657143 1.075630 -8.088739 81 81 81 
3.677852 1.073825 -8.075168 55 55 55 
3.692308 1.070234 -8.048161 55 55 55 
6.295739 1.604010 -12.062155 108 108 108 
6.288557 1.592040 -11.972138 79 79 79 
6.328358 1.592040 -11.972138 95 95 95 
5.824719 1.438202 -10.815281 150 150 150 
5.821429 1.428571 -10.742857 146 146 146 
5.779736 1.409692 -10.600881 105 105 105 
5.789474 1.403509 -10.554385 98 98 98 
5.748918 1.385281 -10.417315 81 81 81 
5.758621 1.379310 -10.372414 92 92 92 
5.986637 1.425390 -10.718930 71 71 71 
6.022272 1.425390 -10.718930 60 60 60 
6.004415 1.412804 -10.624282 61 61 61 
5.960784 1.394336 -10.485403 65 65 65 
6.061674 1.409692 -10.600881 56 56 56 
6.021505 1.376344 -10.350107 43 43 43 
6.055914 1.376344 -10.350107 53 53 53 
6.077253 1.373391 -10.327896 54 54 54 
6.111588 1.373391 -10.327896 47 47 47 
-4.123711 2.144330 -16.538832 189 189 189 
-3.226158 1.700272 -13.113896 188 188 188 
-3.173913 1.695652 -13.078260 190 190 190 
-3.130435 1.695652 -13.078260 190 190 190 
-3.095368 1.700272 -13.113896 187 187 187 
-4.375000 2.437500 -18.799999 185 185 185 
-4.312500 2.437500 -18.799999 182 182 182 
-4.250000 2.437500 -18.799999 184 184 184 
-4.187500 2.437500 -18.799999 186 186 186 
-4.125000 2.437500 -18.799999 187 187 187 
-4.062500 2.437500 -18.799999 185 185 185 
-4.000000 2.437500 -18.799999 184 184 184 
-3.937500 2.437500 -18.799999 184 184 184 
-3.875000 2.437500 -18.799999 182 182 182 
-3.812500 2.437500 -18.799999 179 179 179 
-3.750000 2.437500 -18.799999 177 177 177 
-3.687500 2.437500 -18.799999 175 175 175 
-3.501887 2.354717 -18.161509 171 171 171 
-3.280576 2.244604 -17.312229 168 168 168 
-3.223022 2.244604 -17.312229 168 168 168 
-3.098592 2.197183 -16.946478 166 166 166 
-0.586319 0.508143 -3.919218 148 148 148 
-0.571893 0.506905 -3.909667 148 148 148 
-0.558895 0.506905 -3.909667 150 150 150 
-0.545898 0.506905 -3.909667 150 150 150 
-0.533333 0.507317 -3.912845 150 150 150 
-0.522876 0.509804 -3.932026 149 149 149 
-0.273671 0.381185 -2.940012 133 133 133 
-0.262295 0.378871 -2.922161 118 118 118 
-0.251360 0.377039 -2.908036 89 89 89 
-0.240385 0.375000 -2.892308 76 76 76 
-0.229391 0.372760 -2.875030 73 73 73 
-0.218657 0.370766 -2.859655 72 72 72 
-0.208407 0.369449 -2.849497 66 66 66 
-0.198464 0.368576 -2.842764 55 55 55 
-0.188791 0.368142 -2.839410 57 57 57 
-0.362264 2.354717 -18.161509 70 70 70 
-0.299625 2.337079 -18.025467 70 70 70 
-0.237918 2.319703 -17.891449 68 68 68 
-0.177778 2.311111 -17.825184 72 72 72 
-0.118081 2.302583 -17.759409 74 74 74 
-0.059041 2.302583 -17.759409 79 79 79 
0.000000 2.302583 -17.759409 79 79 79 
0.103896 1.012987 -7.812987 110 110 110 
0.126582 0.987342 -7.615190 153 153 153 
0.148377 0.964451 -7.438640 179 179 179 
0.170213 0.948328 -7.314285 189 189 189 
0.192771 0.939759 -7.248192 189 189 189 
0.216867 0.939759 -7.248192 182 182 182 
0.476319 0.844384 -6.512584 93 93 93 
0.506887 0.859504 -6.629201 54 54 54 
0.586260 0.952672 -7.347786 44 44 44 
0.678304 0.778055 -6.000997 49 49 49 
0.699126 0.779026 -6.008489 47 47 47 
0.720000 0.780000 -6.016000 47 47 47 
0.740926 0.780976 -6.023529 46 46 46 
0.818687 0.694105 -5.353504 54 54 54 
0.836485 0.694105 -5.353504 50 50 50 
0.854283 0.694105 -5.353504 54 54 54 
1.011613 0.805161 -6.210064 58 58 58 
1.037614 0.809339 -6.242282 63 63 63 
1.056995 0.808290 -6.234197 84 84 84 
1.077720 0.808290 -6.234197 110 110 110 
1.089974 0.802057 -6.186118 133 133 133 
1.093671 0.789873 -6.092152 145 145 145 
1.100775 0.604651 -4.663566 167 167 167 
1.113043 0.602899 -4.650048 167 167 167 
1.128502 0.602899 -4.650048 165 165 165 
3.800000 1.950000 -15.039999 153 153 153 
3.850000 1.950000 -15.039999 159 159 159 
3.900000 1.950000 -15.039999 154 154 154 
3.962383 1.956113 -15.087147 137 137 137 
4.012539 1.956113 -15.087147 119 119 119 
4.050000 1.950000 -15.039999 158 158 158 
4.100000 1.950000 -15.039999 190 190 190 
1.262120 0.512736 -3.954642 177 177 177 
1.274220 0.512315 -3.951396 168 168 168 
1.286300 0.511895 -3.948154 135 135 135 
1.299426 0.511895 -3.948154 68 68 68 
1.316872 0.513580 -3.961152 40 40 40 
1.771930 0.684211 -5.277193 41 41 41 
1.791438 0.684962 -5.282986 44 44 44 
1.809001 0.684962 -5.282986 47 47 47 
1.826564 0.684962 -5.282986 53 53 53 
1.842105 0.684211 -5.277193 55 55 55 
1.859649 0.684211 -5.277193 64 64 64 
1.875137 0.683461 -5.271413 77 77 77 
1.892662 0.683461 -5.271413 91 91 91 
1.910186 0.683461 -5.271413 108 108 108 
3.876652 1.374449 -10.600881 154 154 154 
3.911894 1.374449 -10.600881 189 189 189 
3.947137 1.374449 -10.600881 184 184 184 
4.000000 1.380531 -10.647787 185 185 185 
4.750000 1.625000 -12.533333 196 196 196 
4.952381 1.650794 -12.732275 160 160 160 
4.994709 1.650794 -12.732275 155 155 155 
5.037037 1.650794 -12.732275 165 165 165 
4.085106 1.327660 -10.240000 179 179 179 
4.075789 1.313684 -10.132210 167 167 167 
4.083682 1.305439 -10.068619 163 163 163 
2.433962 0.735849 -5.675471 134 134 134 
2.449941 0.734982 -5.668787 132 132 132 
2.468787 0.734982 -5.668787 125 125 125 
2.490566 0.735849 -5.675471 123 123 123 
3.656357 1.072165 -8.269416 114 114 114 
3.683849 1.072165 -8.269416 110 110 110 
3.648649 1.054054 -8.129729 118 118 118 
3.651007 1.046980 -8.075168 99 99 99 
3.665552 1.043478 -8.048161 66 66 66 
3.655629 1.033113 -7.968212 61 61 61 
6.241975 1.540741 -11.883456 73 73 73 
6.281481 1.540741 -11.883456 84 84 84 
5.821429 1.392857 -10.742857 139 139 139 
5.767033 1.371429 -10.577582 104 104 104 
5.776805 1.365427 -10.531291 105 105 105 
5.724138 1.344828 -10.372414 86 86 86 
5.625263 1.313684 -10.132210 79 79 79 
5.658947 1.313684 -10.132210 74 74 74 
5.878261 1.356522 -10.462608 60 60 60 
5.913043 1.356522 -10.462608 60 60 60 
5.896552 1.344828 -10.372414 61 61 61 
5.995643 1.359477 -10.485403 54 54 54 
5.254612 1.151291 -8.879704 44 44 44 
5.274402 1.149171 -8.863352 43 43 43 
-4.178694 2.089347 -16.538832 192 192 192 
-3.260870 1.652174 -13.078260 188 188 188 
-3.217391 1.652174 -13.078260 188 188 188 
-3.173913 1.652174 -13.078260 190 190 190 
-3.130435 1.652174 -13.078260 189 189 189 
-3.086957 1.652174 -13.078260 186 186 186 
-3.051771 1.656676 -13.113896 184 184 184 
-4.312500 2.375000 -18.799999 185 185 185 
-4.250000 2.375000 -18.799999 186 186 186 
-4.187500 2.375000 -18.799999 189 189 189 
-4.125000 2.375000 -18.799999 188 188 188 
-4.062500 2.375000 -18.799999 186 186 186 
-4.000000 2.375000 -18.799999 185 185 185 
-3.937500 2.375000 -18.799999 184 184 184 
-3.875000 2.375000 -18.799999 182 182 182 
-3.812500 2.375000 -18.799999 178 178 178 
-3.750000 2.375000 -18.799999 176 176 176 
-3.374545 2.210909 -17.501091 168 168 168 
-3.268817 2.179211 -17.250179 165 165 165 
-3.154930 2.140845 -16.946478 166 166 166 
-3.066202 2.118467 -16.769337 165 165 165 
-3.010453 2.118467 -16.769337 161 161 161 
-0.586319 0.495114 -3.919218 147 147 147 
-0.572358 0.494309 -3.912845 147 147 147 
-0.559350 0.494309 -3.912845 148 148 148 
-0.546341 0.494309 -3.912845 147 147 147 
-0.533333 0.494309 -3.912845 145 145 145 
-0.522449 0.496327 -3.928816 147 147 147 
-0.424779 0.413887 -3.276242 149 149 149 
-0.284314 0.372549 -2.949019 136 136 136 
-0.274006 0.371865 -2.943609 126 126 126 
-0.263736 0.371184 -2.938217 99 99 99 
-0.253813 0.370958 -2.936424 74 74 74 
-0.241692 0.367372 -2.908036 66 66 66 
-0.229528 0.363419 -2.876748 67 67 67 
-0.219048 0.361905 -2.864762 68 68 68 
-0.208778 0.360617 -2.854567 65 65 65 
-0.198934 0.359976 -2.849497 55 55 55 
-0.189125 0.359338 -2.844444 59 59 59 
-0.301887 2.294340 -18.161509 69 69 69 
-0.237037 2.251852 -17.825184 60 60 60 
-0.176471 2.235294 -17.694117 58 58 58 
-0.117647 2.235294 -17.694117 66 66 66 
-0.058824 2.235294 -17.694117 76 76 76 
0.000000 2.235294 -17.694117 77 77 77 
0.101266 0.962025 -7.615190 90 90 90 
0.125196 0.951487 -7.531768 113 113 113 
0.148377 0.939722 -7.438640 160 160 160 
0.170732 0.926829 -7.336585 188 188 188 
0.194529 0.924012 -7.314285 190 190 190 
0.436364 0.789610 -6.250390 156 156 156 
0.457143 0.789610 -6.250390 87 87 87 
0.486129 0.803170 -6.357728 59 59 59 
0.509284 0.806366 -6.383024 55 55 55 
0.679151 0.759051 -6.008489 47 47 47 
0.699126 0.759051 -6.008489 46 46 46 
0.720000 0.760000 -6.016000 44 44 44 
0.740000 0.760000 -6.016000 44 44 44 
0.761905 0.761905 -6.031077 47 47 47 
1.068091 0.811749 -6.425634 58 58 58 
1.076517 0.802111 -6.349340 78 78 78 
1.091864 0.797900 -6.316010 111 111 111 
1.104167 0.791667 -6.266666 141 141 141 
3.850000 1.900000 -15.039999 165 165 165 
3.900000 1.900000 -15.039999 146 146 146 
3.974843 1.911950 -15.134590 127 127 127 
4.025157 1.911950 -15.134590 108 108 108 
4.075472 1.911950 -15.134590 139 139 139 
4.191693 1.942492 -15.376357 181 181 181 
1.250000 0.500000 -3.957895 177 177 177 
1.262120 0.499589 -3.954642 164 164 164 
1.273175 0.498769 -3.948154 155 155 155 
1.285246 0.498361 -3.944918 138 138 138 
1.299426 0.498769 -3.948154 78 78 78 
1.322314 0.502479 -3.977520 43 43 43 
1.771930 0.666667 -5.277193 42 42 42 
1.793407 0.668132 -5.288791 44 44 44 
1.809001 0.667398 -5.282986 48 48 48 
1.828571 0.668132 -5.288791 54 54 54 
1.846154 0.668132 -5.288791 59 59 59 
1.861690 0.667398 -5.282986 63 63 63 
1.877193 0.666667 -5.277193 75 75 75 
1.892662 0.665936 -5.271413 90 90 90 
1.910186 0.665936 -5.271413 100 100 100 
1.929825 0.666667 -5.277193 139 139 139 
3.877729 1.327511 -10.508297 176 176 176 
3.912664 1.327511 -10.508297 172 172 172 
3.947598 1.327511 -10.508297 161 161 161 
4.053333 1.351111 -10.695110 158 158 158 
2.574468 0.808511 -6.400000 143 143 143 
2.588859 0.806366 -6.383024 147 147 147 
2.433962 0.716981 -5.675471 142 142 142 
2.452830 0.716981 -5.675471 151 151 151 
2.471698 0.716981 -5.675471 130 130 130 
2.490566 0.716981 -5.675471 119 119 119 
2.512397 0.717828 -5.682172 114 114 114 
3.652470 1.035775 -8.198977 118 118 118 
3.667233 1.032258 -8.171137 121 121 121 
3.651007 1.020134 -8.075168 115 115 115 
3.629139 1.006623 -7.968212 78 78 78 
3.655629 1.006623 -7.968212 67 67 67 
6.241975 1.501235 -11.883456 78 78 78 
6.281481 1.501235 -11.883456 78 78 78 
5.744493 1.339207 -10.600881 139 139 139 
5.754386 1.333333 -10.554385 111 111 111 
5.726681 1.318872 -10.439913 109 109 109 
5.724138 1.310345 -10.372414 98 98 98 
5.625263 1.280000 -10.132210 73 73 73 
5.611691 1.269311 -10.047599 68 68 68 
5.633333 1.266667 -10.026667 59 59 59 
5.631470 1.258799 -9.964389 59 59 59 
5.664596 1.258799 -9.964389 60 60 60 
5.697722 1.258799 -9.964389 63 63 63 
5.274402 1.119705 -8.863352 43 43 43 
-3.304348 1.608696 -13.078260 191 191 191 
-3.252033 1.604336 -13.042818 187 187 187 
-3.200000 1.600000 -13.007567 187 187 187 
-3.165312 1.604336 -13.042818 190 190 190 
-3.130435 1.608696 -13.078260 186 186 186 
-3.086957 1.608696 -13.078260 183 183 183 
-3.043478 1.608696 -13.078260 185 185 185 
-3.024657 1.621918 -13.185753 184 184 184 
-4.125000 2.312500 -18.799999 187 187 187 
-4.062500 2.312500 -18.799999 185 185 185 
-4.000000 2.312500 -18.799999 184 184 184 
-3.937500 2.312500 -18.799999 182 182 182 
-3.875000 2.312500 -18.799999 181 181 181 
-3.812500 2.312500 -18.799999 178 178 178 
-3.750000 2.312500 -18.799999 175 175 175 
-3.687500 2.312500 -18.799999 172 172 172 
-3.625000 2.312500 -18.799999 166 166 166 
-3.292419 2.137184 -17.374729 163 163 163 
-3.154930 2.084507 -16.946478 163 163 163 
-3.055556 2.055556 -16.711111 162 162 162 
-3.000000 2.055556 -16.711111 159 159 159 
-0.588235 0.483660 -3.932026 141 141 141 
-0.573290 0.482085 -3.919218 143 143 143 
-0.559805 0.481692 -3.916029 146 146 146 
-0.548571 0.483265 -3.928816 144 144 144 
-0.534202 0.482085 -3.919218 143 143 143 
-0.522449 0.483265 -3.928816 146 146 146 
-0.424490 0.402721 -3.274014 148 148 148 
-0.284663 0.363190 -2.952638 134 134 134 
-0.274342 0.362523 -2.947214 110 110 110 
-0.264059 0.361858 -2.941809 86 86 86 
-0.254434 0.362080 -2.943609 74 74 74 
-0.243457 0.360316 -2.929276 65 65 65 
-0.229940 0.354491 -2.881916 64 64 64 
-0.219309 0.352801 -2.868176 64 64 64 
-0.209026 0.351544 -2.857957 59 59 59 
-0.199052 0.350711 -2.851185 57 57 57 
-0.189461 0.350503 -2.849497 61 61 61 
-0.301887 2.233962 -18.161509 67 67 67 
-0.235294 2.176471 -17.694117 60 60 60 
-0.175824 2.168498 -17.629303 62 62 62 
-0.117216 2.168498 -17.629303 64 64 64 
-0.058608 2.168498 -17.629303 68 68 68 
0.000000 2.176471 -17.694117 75 75 75 
0.101266 0.936709 -7.615190 85 85 85 
0.125196 0.926448 -7.531768 90 90 90 
0.148607 0.916409 -7.450154 132 132 132 
0.170992 0.903817 -7.347786 179 179 179 
0.195122 0.902439 -7.336585 188 188 188 
0.218182 0.896970 -7.292121 189 189 189 
0.431877 0.760925 -6.186118 148 148 148 
0.452442 0.760925 -6.186118 83 83 83 
0.477922 0.768831 -6.250390 69 69 69 
0.505929 0.779974 -6.340975 73 73 73 
0.528402 0.782034 -6.357728 58 58 58 
0.679151 0.739076 -6.008489 45 45 45 
0.698254 0.738155 -6.000997 44 44 44 
0.719101 0.739076 -6.008489 40 40 40 
0.738155 0.738155 -6.000997 42 42 42 
0.758105 0.738155 -6.000997 44 44 44 
1.079622 0.798920 -6.495007 64 64 64 
1.089453 0.790387 -6.425634 91 91 91 
1.103448 0.785146 -6.383024 117 117 117 
1.117260 0.779974 -6.340975 136 136 136 
1.125000 0.770833 -6.266666 172 172 172 
3.850000 1.850000 -15.039999 170 170 170 
3.900000 1.850000 -15.039999 158 158 158 
4.000000 1.873418 -15.230379 132 132 132 
4.089457 1.891374 -15.376357 106 106 106 
4.153846 1.897436 -15.425640 128 128 128 
4.245955 1.915858 -15.575404 173 173 173 
4.311688 1.922078 -15.625974 185 185 185 
1.188571 0.483265 -3.928816 198 198 198 
1.201633 0.483265 -3.928816 198 198 198 
1.248973 0.486442 -3.954642 193 193 193 
1.257985 0.484848 -3.941687 179 179 179 
1.270049 0.484452 -3.938461 150 150 150 
1.282093 0.484056 -3.935241 129 129 129 
1.297297 0.484848 -3.941687 78 78 78 
1.327801 0.491286 -3.994025 46 46 46 
1.773875 0.649835 -5.282986 42 42 42 
1.795380 0.651265 -5.294609 46 46 46 
1.810989 0.650549 -5.288791 51 51 51 
1.830583 0.651265 -5.294609 57 57 57 
1.850220 0.651982 -5.300440 62 62 62 
1.865787 0.651265 -5.294609 67 67 67 
1.881319 0.650549 -5.288791 76 76 76 
1.894737 0.649123 -5.277193 89 89 89 
1.912281 0.649123 -5.277193 98 98 98 
1.929825 0.649123 -5.277193 130 130 130 
2.837061 0.945687 -7.688179 163 163 163 
3.912664 1.292576 -10.508297 163 163 163 
2.897436 0.948718 -7.712820 158 158 158 
2.923077 0.948718 -7.712820 140 140 140 
4.919786 1.582888 -12.868448 155 155 155 
2.553191 0.787234 -6.400000 149 149 149 
2.016667 0.616667 -5.013333 131 131 131 
2.585430 0.784106 -6.374569 142 142 142 
2.610080 0.785146 -6.383024 163 163 163 
2.452830 0.698113 -5.675471 140 140 140 
2.471698 0.698113 -5.675471 125 125 125 
2.490566 0.698113 -5.675471 100 100 100 
2.512397 0.698937 -5.682172 97 97 97 
3.652470 1.008518 -8.198977 121 121 121 
3.651007 0.993289 -8.075168 92 92 92 
3.605263 0.973684 -7.915789 87 87 87 
3.631579 0.973684 -7.915789 82 82 82 
3.598706 0.957929 -7.787702 64 64 64 
6.281481 1.461728 -11.883456 84 84 84 
3.085030 0.708982 -5.763832 115 115 115 
5.709251 1.303965 -10.600881 119 119 119 
5.706783 1.295405 -10.531291 134 134 134 
5.716775 1.289760 -10.485403 130 130 130 
5.739130 1.286957 -10.462608 114 114 114 
5.736501 1.278618 -10.394816 102 102 102 
5.758621 1.275862 -10.372414 66 66 66 
5.647059 1.243698 -10.110924 64 64 64 
5.633333 1.233333 -10.026667 63 63 63 
5.573771 1.213115 -9.862295 58 58 58 
5.583673 1.208163 -9.822041 62 62 62 
5.548387 1.193548 -9.703225 67 67 67 
5.524950 1.181637 -9.606387 56 56 56 
5.545817 1.179283 -9.587251 53 53 53 
5.566600 1.176938 -9.568191 46 46 46 
5.598410 1.176938 -9.568191 46 46 46 
5.574803 1.165354 -9.474015 51 51 51 
5.584314 1.160784 -9.436862 52 52 52 
5.593750 1.156250 -9.400000 48 48 48 
-3.304348 1.565217 -13.078260 191 191 191 
-3.234501 1.552561 -12.972507 189 189 189 
-3.191375 1.552561 -12.972507 188 188 188 
-3.156757 1.556757 -13.007567 189 189 189 
-3.121951 1.560976 -13.042818 182 182 182 
-3.086957 1.565217 -13.078260 180 180 180 
-3.043478 1.565217 -13.078260 184 184 184 
-4.062500 2.250000 -18.799999 180 180 180 
-4.000000 2.250000 -18.799999 180 180 180 
-3.937500 2.250000 -18.799999 178 178 178 
-3.875000 2.250000 -18.799999 178 178 178 
-3.812500 2.250000 -18.799999 176 176 176 
-3.750000 2.250000 -18.799999 174 174 174 
-3.687500 2.250000 -18.799999 171 171 171 
-3.625000 2.250000 -18.799999 163 163 163 
-3.328467 2.102190 -17.564962 159 159 159 
-3.154930 2.028169 -16.946478 159 159 159 
-3.034483 1.986207 -16.595861 158 158 158 
-2.979310 1.986207 -16.595861 153 153 153 
-0.640000 0.512000 -4.278044 138 138 138 
-0.576105 0.471358 -3.938461 141 141 141 
-0.563011 0.471358 -3.938461 144 144 144 
-0.550369 0.471744 -3.941687 141 141 141 
-0.536386 0.470973 -3.935241 140 140 140 
-0.436264 0.392638 -3.280709 141 141 141 
-0.424779 0.392103 -3.276242 146 146 146 
-0.415869 0.393981 -3.291929 133 133 133 
-0.388849 0.411723 -3.440171 123 123 123 
-0.377412 0.411723 -3.440171 236 236 236 
-0.368345 0.414388 -3.462446 197 197 197 
-0.274510 0.352941 -2.949019 110 110 110 
-0.264544 0.352725 -2.947214 84 84 84 
-0.254902 0.352941 -2.949019 77 77 77 
-0.243754 0.351005 -2.932846 69 69 69 
-0.230492 0.345738 -2.888835 65 65 65 
-0.219701 0.343881 -2.873313 61 61 61 
-0.209399 0.342653 -2.863058 55 55 55 
-0.199288 0.341637 -2.854567 55 55 55 
-0.189798 0.341637 -2.854567 55 55 55 
-0.231884 2.086957 -17.437681 62 62 62 
-0.173913 2.086957 -17.437681 67 67 67 
-0.116788 2.102190 -17.564962 65 65 65 
-0.058608 2.109890 -17.629303 63 63 63 
0.000000 2.125461 -17.759409 70 70 70 
0.125196 0.901408 -7.531768 80 80 80 
0.148837 0.893023 -7.461705 104 104 104 
0.171516 0.882083 -7.370291 154 154 154 
0.195420 0.879389 -7.347786 168 168 168 
0.217195 0.868778 -7.259125 173 173 173 
0.411311 0.740360 -6.186118 185 185 185 
0.430218 0.737516 -6.162356 133 133 133 
0.451282 0.738462 -6.170256 77 77 77 
0.473008 0.740360 -6.186118 70 70 70 
0.500652 0.750978 -6.274837 73 73 73 
0.524934 0.755906 -6.316010 57 57 57 
0.678304 0.718204 -6.000997 42 42 42 
0.698254 0.718204 -6.000997 40 40 40 
0.718204 0.718204 -6.000997 36 36 36 
0.736318 0.716418 -5.986069 38 38 38 
0.755279 0.715528 -5.978633 39 39 39 
0.775155 0.715528 -5.978633 41 41 41 
1.088435 0.783673 -6.548027 75 75 75 
1.098250 0.775236 -6.477523 102 102 102 
1.112299 0.770053 -6.434224 115 115 115 
1.126162 0.764940 -6.391500 135 135 135 
1.145889 0.763926 -6.383024 159 159 159 
1.168659 0.764940 -6.391500 161 161 161 
4.103896 1.870130 -15.625974 144 144 144 
4.142395 1.864078 -15.575404 114 114 114 
4.194175 1.864078 -15.575404 123 123 123 
4.259740 1.870130 -15.625974 171 171 171 
4.311688 1.870130 -15.625974 185 185 185 
1.193443 0.472131 -3.944918 205 205 205 
1.206557 0.472131 -3.944918 204 204 204 
1.234811 0.472906 -3.951396 215 215 215 
1.244881 0.471744 -3.941687 221 221 221 
1.253878 0.470204 -3.928816 215 215 215 
1.262815 0.468674 -3.916029 189 189 189 
1.274797 0.468293 -3.912845 156 156 156 
1.287805 0.468293 -3.912845 92 92 92 
1.327801 0.478008 -3.994025 51 51 51 
1.779736 0.634361 -5.300440 47 47 47 
1.797357 0.634361 -5.300440 51 51 51 
1.814978 0.634361 -5.300440 58 58 58 
1.834620 0.635061 -5.306284 63 63 63 
1.854305 0.635762 -5.312141 68 68 68 
1.871965 0.635762 -5.312141 71 71 71 
1.885463 0.634361 -5.300440 83 83 83 
1.898901 0.632967 -5.288791 96 96 96 
1.912281 0.631579 -5.277193 103 103 103 
1.936194 0.633663 -5.294609 124 124 124 
2.837061 0.920128 -7.688179 154 154 154 
2.897436 0.923077 -7.712820 152 152 152 
2.918400 0.921600 -7.700480 141 141 141 
2.948718 0.923077 -7.712820 150 150 150 
2.969600 0.921600 -7.700480 171 171 171 
1.979210 0.598753 -5.002911 150 150 150 
1.995842 0.598753 -5.002911 148 148 148 
2.012474 0.598753 -5.002911 137 137 137 
2.033333 0.600000 -5.013333 129 129 129 
2.631016 0.770053 -6.434224 148 148 148 
2.452830 0.679245 -5.675471 130 130 130 
2.471698 0.679245 -5.675471 123 123 123 
2.490566 0.679245 -5.675471 94 94 94 
2.512397 0.680047 -5.682172 87 87 87 
3.706985 0.981261 -8.198977 80 80 80 
3.605263 0.947368 -7.915789 89 89 89 
3.572815 0.932039 -7.787702 99 99 99 
3.592892 0.930533 -7.775121 73 73 73 
3.578275 0.920128 -7.688179 60 60 60 
6.281481 1.422222 -11.883456 81 81 81 
3.062201 0.688995 -5.756938 76 76 76 
3.081340 0.688995 -5.756938 88 88 88 
5.709251 1.268722 -10.600881 99 99 99 
5.681917 1.254902 -10.485403 116 116 116 
5.716775 1.254902 -10.485403 144 144 144 
5.751634 1.254902 -10.485403 109 109 109 
5.981982 1.297297 -10.839640 81 81 81 
6.031603 1.300226 -10.864108 65 65 65 
6.081448 1.303167 -10.888687 65 65 65 
5.560976 1.170732 -9.782113 66 66 66 
5.526104 1.156626 -9.664257 62 62 62 
5.524950 1.149701 -9.606387 56 56 56 
5.545817 1.147410 -9.587251 54 54 54 
5.566600 1.145129 -9.568191 53 53 53 
5.598410 1.145129 -9.568191 48 48 48 
5.585799 1.136095 -9.492702 51 51 51 
5.617357 1.136095 -9.492702 52 52 52 
-3.268817 1.505376 -12.937634 192 192 192 
-3.174603 1.481481 -12.732275 190 190 190 
-3.165775 1.497326 -12.868448 189 189 189 
-3.131367 1.501341 -12.902948 188 188 188 
-3.105121 1.509434 -12.972507 181 181 181 
-3.086957 1.521739 -13.078260 179 179 179 
-3.043478 1.521739 -13.078260 182 182 182 
-4.000000 2.187500 -18.799999 170 170 170 
-3.937500 2.187500 -18.799999 167 167 167 
-3.875000 2.187500 -18.799999 168 168 168 
-3.812500 2.187500 -18.799999 168 168 168 
-3.750000 2.187500 -18.799999 168 168 168 
-3.687500 2.187500 -18.799999 165 165 165 
-3.625000 2.187500 -18.799999 159 159 159 
-3.365314 2.066421 -17.759409 156 156 156 
-3.270073 2.043796 -17.564962 155 155 155 
-3.098592 1.971831 -16.946478 153 153 153 
-0.585204 0.465503 -4.000665 143 143 143 
-0.565789 0.460526 -3.957895 142 142 142 
-0.551724 0.459770 -3.951396 140 140 140 
-0.537705 0.459016 -3.944918 139 139 139 
-0.437757 0.383037 -3.291929 139 139 139 
-0.425358 0.381731 -3.280709 143 143 143 
-0.414734 0.381992 -3.282947 140 140 140 
-0.404925 0.383037 -3.291929 95 95 95 
-0.398340 0.387275 -3.328354 78 78 78 
-0.389701 0.389701 -3.349200 49 49 49 
-0.382022 0.393258 -3.379775 88 88 88 
-0.373938 0.396601 -3.408499 216 216 216 
-0.364154 0.398293 -3.423044 218 218 218 
-0.275184 0.343980 -2.956265 125 125 125 
-0.264706 0.343137 -2.949019 87 87 87 
-0.254902 0.343137 -2.949019 68 68 68 
-0.220888 0.336134 -2.888835 59 59 59 
-0.210149 0.334328 -2.873313 54 54 54 
-0.199881 0.333135 -2.863058 52 52 52 
-0.228571 2.000000 -17.188570 61 61 61 
-0.170213 1.985816 -17.066666 62 62 62 
-0.115942 2.028986 -17.437681 62 62 62 
-0.058608 2.051282 -17.629303 61 61 61 
0.125392 0.877743 -7.543573 73 73 73 
0.149300 0.870918 -7.484914 85 85 85 
0.172308 0.861538 -7.404307 137 137 137 
0.195420 0.854962 -7.347786 165 165 165 
0.408163 0.714286 -6.138775 175 175 175 
0.429668 0.716113 -6.154476 126 126 126 
0.450704 0.717029 -6.162356 72 72 72 
0.473008 0.719794 -6.186118 60 60 60 
0.498054 0.726329 -6.242282 58 58 58 
0.521512 0.730117 -6.274837 47 47 47 
0.545932 0.734908 -6.316010 43 43 43 
0.658354 0.698254 -6.000997 44 44 44 
0.678304 0.698254 -6.000997 40 40 40 
0.697385 0.697385 -5.993524 37 37 37 
0.716418 0.696517 -5.986069 34 34 34 
0.733581 0.693928 -5.963816 34 34 34 
0.746929 0.687961 -5.912530 36 36 36 
0.756364 0.678788 -5.833697 38 38 38 
0.772014 0.675513 -5.805549 46 46 46 
0.788462 0.673077 -5.784615 51 51 51 
0.802867 0.669056 -5.750060 48 48 48 
1.101928 0.771350 -6.629201 75 75 75 
1.101215 0.755736 -6.495007 103 103 103 
1.119785 0.753701 -6.477523 123 123 123 
1.132176 0.747664 -6.425634 141 141 141 
1.147410 0.743692 -6.391500 136 136 136 
1.168659 0.743692 -6.391500 144 144 144 
4.117264 1.824104 -15.676872 150 150 150 
4.169381 1.824104 -15.676872 122 122 122 
4.207792 1.818182 -15.625974 120 120 120 
1.204013 0.468227 -4.024080 199 199 199 
1.196385 0.460148 -3.954642 199 199 199 
1.206557 0.459016 -3.944918 198 198 198 
1.218673 0.458640 -3.941687 205 205 205 
1.227755 0.457143 -3.928816 212 212 212 
1.239804 0.456770 -3.925611 219 219 219 
1.248780 0.455285 -3.912845 218 218 218 
1.258719 0.454177 -3.903325 205 205 205 
1.269636 0.453441 -3.897004 182 182 182 
1.282591 0.453441 -3.897004 117 117 117 
1.298701 0.454545 -3.906493 58 58 58 
1.783664 0.618102 -5.312141 53 53 53 
1.801324 0.618102 -5.312141 56 56 56 
1.818985 0.618102 -5.312141 59 59 59 
1.846837 0.621532 -5.341620 63 63 63 
1.864595 0.621532 -5.341620 71 71 71 
1.880266 0.620843 -5.335698 76 76 76 
1.889625 0.618102 -5.312141 88 88 88 
1.903084 0.616740 -5.300440 101 101 101 
1.920705 0.616740 -5.300440 106 106 106 
1.957731 0.622914 -5.353504 122 122 122 
2.837061 0.894569 -7.688179 142 142 142 
2.923077 0.897436 -7.712820 138 138 138 
2.948718 0.897436 -7.712820 139 139 139 
2.969600 0.896000 -7.700480 152 152 152 
2.647808 0.792079 -6.807355 159 159 159 
2.659155 0.788732 -6.778591 161 161 161 
1.979210 0.582121 -5.002911 138 138 138 
1.995842 0.582121 -5.002911 147 147 147 
2.012474 0.582121 -5.002911 144 144 144 
2.609626 0.748663 -6.434224 123 123 123 
2.638070 0.750670 -6.451474 151 151 151 
2.452830 0.660377 -5.675471 119 119 119 
2.471698 0.660377 -5.675471 130 130 130 
2.490566 0.660377 -5.675471 112 112 112 
2.509434 0.660377 -5.675471 93 93 93 
3.623141 0.925620 -7.955041 95 95 95 
3.567044 0.904685 -7.775121 108 108 108 
3.592892 0.904685 -7.775121 83 83 83 
3.595506 0.898876 -7.725200 65 65 65 
3.603834 0.894569 -7.688179 72 72 72 
3.054893 0.668258 -5.743198 88 88 88 
3.073986 0.668258 -5.743198 84 84 84 
5.709251 1.233480 -10.600881 79 79 79 
5.744493 1.233480 -10.600881 93 93 93 
5.779736 1.233480 -10.600881 116 116 116 
6.111111 1.296296 -11.140740 91 91 91 
6.133949 1.293303 -11.115011 59 59 59 
6.128440 1.284404 -11.038531 56 56 56 
6.165138 1.284404 -11.038531 60 60 60 
5.548387 1.129032 -9.703225 61 61 61 
5.558233 1.124498 -9.664257 61 61 61 
5.612903 1.129032 -9.703225 55 55 55 
5.633803 1.126761 -9.683702 55 55 55 
5.609562 1.115538 -9.587251 49 49 49 
5.630219 1.113320 -9.568191 50 50 50 
5.617357 1.104537 -9.492702 48 48 48 
5.705179 1.115538 -9.587251 46 46 46 
-3.251337 1.454545 -12.868448 188 188 188 
-3.133159 1.420366 -12.566057 185 185 185 
-3.132275 1.439153 -12.732275 184 184 184 
-3.131367 1.458445 -12.902948 183 183 183 
-3.105121 1.466307 -12.972507 179 179 179 
-2.437086 1.200883 -10.624282 178 178 178 
-2.396476 1.198238 -10.600881 179 179 179 
-4.062500 2.125000 -18.799999 169 169 169 
-4.000000 2.125000 -18.799999 164 164 164 
-3.937500 2.125000 -18.799999 163 163 163 
-3.875000 2.125000 -18.799999 168 168 168 
-3.812500 2.125000 -18.799999 179 179 179 
-3.750000 2.125000 -18.799999 180 180 180 
-3.687500 2.125000 -18.799999 167 167 167 
-3.625000 2.125000 -18.799999 161 161 161 
-3.562500 2.125000 -18.799999 160 160 160 
-3.306273 2.007380 -17.759409 160 160 160 
-3.098592 1.915493 -16.946478 158 158 158 
-0.577666 0.456759 -4.040974 139 139 139 
-0.554913 0.449216 -3.974236 138 138 138 
-0.538588 0.446634 -3.951396 139 139 139 
-0.437757 0.372093 -3.291929 138 138 138 
-0.425648 0.371078 -3.282947 138 138 138 
-0.415869 0.372093 -3.291929 121 121 121 
-0.404925 0.372093 -3.291929 85 85 85 
-0.395333 0.373370 -3.303226 65 65 65 
-0.387275 0.376210 -3.328354 41 41 41 
-0.377254 0.377254 -3.337587 63 63 63 
-0.370787 0.382022 -3.379775 190 190 190 
-0.362350 0.384996 -3.406086 232 232 232 
-0.352774 0.386913 -3.423044 160 160 160 
-0.275523 0.334563 -2.959902 133 133 133 
-0.264544 0.333129 -2.947214 95 95 95 
-0.254434 0.332722 -2.943609 64 64 64 
-0.243754 0.331505 -2.932846 60 60 60 
-0.226148 1.922261 -17.006359 61 61 61 
-0.169014 1.915493 -16.946478 60 60 60 
-0.113475 1.929078 -17.066666 61 61 61 
0.125589 0.854003 -7.555416 70 70 70 
0.149300 0.846034 -7.484914 82 82 82 
0.172840 0.839506 -7.427160 123 123 123 
0.196018 0.833078 -7.370291 162 162 162 
0.376704 0.674102 -5.963816 181 181 181 
0.407643 0.692994 -6.130955 170 170 170 
0.428571 0.693878 -6.138775 123 123 123 
0.452442 0.699229 -6.186118 68 68 68 
0.476067 0.703752 -6.226132 58 58 58 
0.498054 0.705577 -6.242282 51 51 51 
0.518807 0.705577 -6.242282 41 41 41 
0.542373 0.709257 -6.274837 42 42 42 
0.620776 0.680851 -6.023529 45 45 45 
0.638404 0.678304 -6.000997 43 43 43 
0.658354 0.678304 -6.000997 44 44 44 
0.677460 0.677460 -5.993524 42 42 42 
0.696517 0.676617 -5.986069 37 37 37 
0.711990 0.672435 -5.949073 35 35 35 
0.727273 0.668305 -5.912530 36 36 36 
0.736970 0.659394 -5.833697 36 36 36 
0.753623 0.657005 -5.812560 37 37 37 
0.770156 0.654633 -5.791576 43 43 43 
0.785629 0.651497 -5.763832 49 49 49 
0.802867 0.649940 -5.750060 52 52 52 
1.109570 0.754508 -6.675173 77 77 77 
1.113233 0.742156 -6.565893 94 94 94 
1.119785 0.732167 -6.477523 100 100 100 
1.132176 0.726302 -6.425634 105 105 105 
1.145889 0.721485 -6.383024 111 111 111 
1.167109 0.721485 -6.383024 127 127 127 
1.188329 0.721485 -6.383024 148 148 148 
4.117264 1.771987 -15.676872 154 154 154 
4.142395 1.760518 -15.575404 129 129 129 
4.207792 1.766234 -15.625974 120 120 120 
1.201001 0.453711 -4.014011 186 186 186 
1.202312 0.449216 -3.974236 186 186 186 
1.209532 0.447001 -3.954642 185 185 185 
1.214694 0.444082 -3.928816 192 192 192 
1.226754 0.443719 -3.925611 201 201 201 
1.235772 0.442276 -3.912845 206 206 206 
1.245742 0.441200 -3.903325 206 206 206 
1.254648 0.439774 -3.890703 201 201 201 
1.264516 0.438710 -3.881290 188 188 188 
1.273312 0.437299 -3.868810 139 139 139 
1.293452 0.439774 -3.890703 68 68 68 
1.783664 0.600442 -5.312141 59 59 59 
1.811321 0.603774 -5.341620 62 62 62 
1.829079 0.603774 -5.341620 61 61 61 
1.855072 0.606466 -5.365440 63 63 63 
1.872910 0.606466 -5.365440 73 73 73 
1.888641 0.605791 -5.359465 79 79 79 
1.900111 0.603774 -5.341620 89 89 89 
1.917869 0.603774 -5.341620 102 102 102 
1.939933 0.605117 -5.353504 110 110 110 
1.975309 0.610550 -5.401571 121 121 121 
2.004515 0.613995 -5.432054 135 135 135 
2.583569 0.770538 -6.816997 133 133 133 
2.602546 0.769448 -6.807355 139 139 139 
2.625177 0.769448 -6.807355 141 141 141 
2.636620 0.766197 -6.778591 139 139 139 
2.636872 0.759777 -6.721787 125 125 125 
2.648122 0.756606 -6.693741 110 110 110 
2.609164 0.733154 -6.486253 118 118 118 
2.616622 0.729223 -6.451474 113 113 113 
2.638070 0.729223 -6.451474 140 140 140 
2.655957 0.728246 -6.442838 146 146 146 
2.677376 0.728246 -6.442838 137 137 137 
2.490566 0.641509 -5.675471 120 120 120 
2.509434 0.641509 -5.675471 99 99 99 
3.659432 0.908180 -8.034724 95 95 95 
3.572815 0.880259 -7.787702 105 105 105 
3.592892 0.878837 -7.775121 88 88 88 
3.612903 0.877419 -7.762580 67 67 67 
2.797327 0.605791 -5.359465 59 59 59 
2.815145 0.605791 -5.359465 51 51 51 
3.014218 0.644550 -5.702369 62 62 62 
3.033175 0.644550 -5.702369 88 88 88 
3.030588 0.640000 -5.662117 104 104 104 
5.709251 1.198238 -10.600881 87 87 87 
6.284338 1.310843 -11.597108 99 99 99 
6.307693 1.307692 -11.569230 85 85 85 
6.315790 1.301435 -11.513875 66 66 66 
6.278960 1.286052 -11.377777 53 53 53 
6.185185 1.259259 -11.140740 49 49 49 
6.207852 1.256351 -11.115011 60 60 60 
6.061674 1.198238 -10.600881 75 75 75 
5.603239 1.101215 -9.742510 70 70 70 
5.635628 1.101215 -9.742510 57 57 57 
5.668016 1.101215 -9.742510 53 53 53 
5.677419 1.096774 -9.703225 55 55 55 
5.686747 1.092369 -9.664257 51 51 51 
5.673307 1.083665 -9.587251 43 43 43 
5.728000 1.088000 -9.625600 39 39 39 
-3.061224 1.346939 -12.277551 180 180 180 
-2.426374 1.160440 -10.577582 179 179 179 
-2.344828 1.137931 -10.372414 180 180 180 
-2.305376 1.135484 -10.350107 178 178 178 
-2.227848 1.113924 -10.153586 176 176 176 
-2.157676 1.095436 -9.985062 170 170 170 
-2.085540 1.075356 -9.802036 167 167 167 
-3.937500 2.062500 -18.799999 169 169 169 
-3.750000 2.062500 -18.799999 229 229 229 
-3.687500 2.062500 -18.799999 183 183 183 
-3.625000 2.062500 -18.799999 164 164 164 
-3.562500 2.062500 -18.799999 162 162 162 
-3.330855 1.962825 -17.891449 161 161 161 
-0.581081 0.445946 -4.064865 135 135 135 
-0.564232 0.443325 -4.040974 135 135 135 
-0.449931 0.362140 -3.300960 138 138 138 
-0.438056 0.361396 -3.294182 138 138 138 
-0.426813 0.361149 -3.291929 135 135 135 
-0.415869 0.361149 -3.291929 119 119 119 
-0.403820 0.360164 -3.282947 80 80 80 
-0.393981 0.361149 -3.291929 53 53 53 
-0.384351 0.362388 -3.303226 38 38 38 
-0.376471 0.365398 -3.330657 49 49 49 
-0.370007 0.370007 -3.372670 152 152 152 
-0.360056 0.371308 -3.384529 238 238 238 
-0.351026 0.373673 -3.406086 176 176 176 
-0.265683 0.324723 -2.959902 106 106 106 
-0.254746 0.323331 -2.947214 68 68 68 
-0.897690 1.742574 -15.883828 55 55 55 
-0.836601 1.725490 -15.728104 48 48 48 
-0.725076 1.595166 -14.540180 51 51 51 
-0.658824 1.552941 -14.155293 54 54 54 
-0.611765 1.552941 -14.155293 51 51 51 
-0.225352 1.859155 -16.946478 66 66 66 
-0.169014 1.859155 -16.946478 62 62 62 
-0.112676 1.859155 -16.946478 69 69 69 
-0.056338 1.859155 -16.946478 66 66 66 
0.149300 0.821151 -7.484914 79 79 79 
0.172840 0.814815 -7.427160 104 104 104 
0.196018 0.808576 -7.370291 157 157 157 
0.219178 0.803653 -7.325418 175 175 175 
0.356877 0.654275 -5.963816 178 178 178 
0.374846 0.651048 -5.934402 175 175 175 
0.407643 0.672611 -6.130955 176 176 176 
0.430218 0.676056 -6.162356 126 126 126 
0.458333 0.687500 -6.266666 67 67 67 
0.479167 0.687500 -6.266666 59 59 59 
0.498054 0.684825 -6.242282 47 47 47 
0.518807 0.684825 -6.242282 40 40 40 
0.538860 0.683938 -6.234197 40 40 40 
0.559586 0.683938 -6.234197 37 37 37 
0.600751 0.660826 -6.023529 44 44 44 
0.619226 0.659176 -6.008489 46 46 46 
0.639201 0.659176 -6.008489 42 42 42 
0.658354 0.658354 -6.000997 41 41 41 
0.677460 0.657534 -5.993524 40 40 40 
0.694789 0.655087 -5.971216 38 38 38 
0.710234 0.651048 -5.934402 36 36 36 
0.723716 0.645477 -5.883618 37 37 37 
0.736970 0.640000 -5.833697 38 38 38 
0.753623 0.637681 -5.812560 38 38 38 
0.770156 0.635379 -5.791576 43 43 43 
0.788462 0.634615 -5.784615 54 54 54 
0.805755 0.633094 -5.770743 64 64 64 
1.113233 0.720327 -6.565893 82 82 82 
1.115281 0.707775 -6.451474 78 78 78 
1.127660 0.702128 -6.400000 84 84 84 
1.142857 0.698413 -6.366138 98 98 98 
1.162483 0.697490 -6.357728 115 115 115 
1.174312 0.692005 -6.307733 119 119 119 
1.170732 0.613240 -5.589779 154 154 154 
1.170286 0.603429 -5.500343 156 156 156 
1.302994 0.632335 -5.763832 148 148 148 
1.322156 0.632335 -5.763832 157 157 157 
4.117264 1.719870 -15.676872 153 153 153 
4.169381 1.719870 -15.676872 129 129 129 
4.221498 1.719870 -15.676872 116 116 116 
1.190635 0.441472 -4.024080 195 195 195 
1.201001 0.440367 -4.014011 186 186 186 
1.208299 0.438174 -3.994025 186 186 186 
1.215524 0.436003 -3.974236 186 186 186 
1.220673 0.433142 -3.948154 187 187 187 
1.226754 0.430669 -3.925611 188 188 188 
1.235772 0.429268 -3.912845 194 194 194 
1.241714 0.426839 -3.890703 195 195 195 
1.251613 0.425806 -3.881290 193 193 193 
1.258427 0.423756 -3.862600 185 185 185 
1.269231 0.423077 -3.856410 153 153 153 
1.284109 0.423756 -3.862600 82 82 82 
1.787611 0.584071 -5.323894 60 60 60 
1.815350 0.587319 -5.353504 65 65 65 
1.839286 0.589286 -5.371428 67 67 67 
1.861297 0.590604 -5.383445 68 68 68 
1.879195 0.590604 -5.383445 76 76 76 
1.894972 0.589944 -5.377430 82 82 82 
1.912849 0.589944 -5.377430 87 87 87 
1.941573 0.593258 -5.407640 98 98 98 
1.966178 0.595265 -5.425930 108 108 108 
1.984216 0.595265 -5.425930 118 118 118 
2.006780 0.596610 -5.438192 133 133 133 
2.034052 0.599319 -5.462883 136 136 136 
2.180941 0.636912 -5.805549 142 142 142 
2.634014 0.718367 -6.548027 117 117 117 
2.630728 0.711590 -6.486253 107 107 107 
2.638070 0.707775 -6.451474 123 123 123 
2.652406 0.705882 -6.434224 145 145 145 
2.673797 0.705882 -6.434224 165 165 165 
2.684421 0.703063 -6.408522 163 163 163 
2.503529 0.621176 -5.662117 107 107 107 
