ply
format ascii 1.0
element vertex 1144
property float x
property float y
property float z
property uchar red
property uchar green
property uchar blue
end_header
2.342679 -2.392523 -14.993146 104 104 104 
2.363077 -2.363077 -14.808615 100 100 100 
2.404908 -2.355828 -14.763189 96 96 96 
2.424242 -2.327273 -14.584242 95 95 95 
2.450450 -2.306306 -14.452852 97 97 97 
2.498498 -2.306306 -14.452852 96 96 96 
3.488722 -2.887218 -18.093233 85 85 85 
3.470588 -2.823529 -17.694117 86 86 86 
3.529412 -2.823529 -17.694117 88 88 88 
3.601476 -2.833948 -17.759409 87 87 87 
3.647059 -2.823529 -17.694117 81 81 81 
3.665455 -2.792727 -17.501091 77 77 77 
3.723636 -2.792727 -17.501091 75 75 75 
4.187500 -3.000000 -18.799999 71 71 71 
4.250000 -3.000000 -18.799999 68 68 68 
4.312500 -3.000000 -18.799999 65 65 65 
4.375000 -3.000000 -18.799999 64 64 64 
4.437500 -3.000000 -18.799999 63 63 63 
4.500000 -3.000000 -18.799999 62 62 62 
4.562500 -3.000000 -18.799999 60 60 60 
4.625000 -3.000000 -18.799999 62 62 62 
4.687500 -3.000000 -18.799999 65 65 65 
4.750000 -3.000000 -18.799999 66 66 66 
4.812500 -3.000000 -18.799999 69 69 69 
4.875000 -3.000000 -18.799999 71 71 71 
4.937500 -3.000000 -18.799999 70 70 70 
5.000000 -3.000000 -18.799999 76 76 76 
5.062500 -3.000000 -18.799999 82 82 82 
6.000000 -3.000000 -18.799999 68 68 68 
3.240083 -1.603340 -10.047599 71 71 71 
3.273486 -1.603340 -10.047599 72 72 72 
5.866667 -2.844445 -17.825184 65 65 65 
5.860806 -2.813187 -17.629303 64 64 64 
5.812950 -2.762590 -17.312229 65 65 65 
5.746479 -2.704225 -16.946478 69 69 69 
5.802817 -2.704225 -16.946478 65 65 65 
5.859155 -2.704225 -16.946478 63 63 63 
5.793103 -2.648276 -16.595861 58 58 58 
5.768707 -2.612245 -16.370068 60 60 60 
6.456141 -2.245614 -14.072514 66 66 66 
6.409222 -2.213257 -13.869740 63 63 63 
6.549707 -2.245614 -14.072514 59 59 59 
6.615836 -2.252199 -14.113783 58 58 58 
6.662756 -2.252199 -14.113783 55 55 55 
3.769357 -1.265239 -7.928830 53 53 53 
3.789474 -1.263158 -7.915789 54 54 54 
3.815789 -1.263158 -7.915789 55 55 55 
3.842105 -1.263158 -7.915789 57 57 57 
3.868421 -1.263158 -7.915789 54 54 54 
3.901153 -1.265239 -7.928830 51 51 51 
4.006723 -1.290756 -8.088739 50 50 50 
4.159445 -1.331023 -8.341074 51 51 51 
3.376499 -0.920863 -5.770743 43 43 43 
3.391617 -0.919760 -5.763832 42 42 42 
3.414868 -0.920863 -5.770743 41 41 41 
3.434053 -0.920863 -5.770743 41 41 41 
-4.296820 -2.770318 -17.006359 117 117 117 
-4.195804 -2.741259 -16.827971 114 114 114 
-4.139860 -2.741259 -16.827971 116 116 116 
-4.083916 -2.741259 -16.827971 117 117 117 
-3.277778 -2.722222 -16.711111 124 124 124 
-3.222222 -2.722222 -16.711111 124 124 124 
-3.134021 -2.694158 -16.538832 125 125 125 
-3.068493 -2.684932 -16.482191 124 124 124 
-3.024055 -2.694158 -16.538832 124 124 124 
-2.969072 -2.694158 -16.538832 126 126 126 
-2.934256 -2.712803 -16.653286 127 127 127 
-2.888889 -2.722222 -16.711111 127 127 127 
-2.843206 -2.731707 -16.769337 127 127 127 
-2.797203 -2.741259 -16.827971 126 126 126 
-3.062500 -3.062500 -18.799999 125 125 125 
-3.000000 -3.062500 -18.799999 124 124 124 
-2.937500 -3.062500 -18.799999 126 126 126 
-2.875000 -3.062500 -18.799999 126 126 126 
-2.625000 -3.062500 -18.799999 127 127 127 
-2.095847 -2.504792 -15.376357 126 126 126 
-2.044729 -2.504792 -15.376357 126 126 126 
-2.006431 -2.520900 -15.475241 127 127 127 
-1.961290 -2.529032 -15.525161 124 124 124 
-1.928339 -2.553746 -15.676872 121 121 121 
-1.882353 -2.562092 -15.728104 122 122 122 
-1.830065 -2.562092 -15.728104 123 123 123 
-1.783607 -2.570492 -15.779672 122 122 122 
-1.875000 -3.062500 -18.799999 123 123 123 
-1.812500 -3.062500 -18.799999 124 124 124 
-1.750000 -3.062500 -18.799999 122 122 122 
-1.605948 -2.914498 -17.891449 122 122 122 
-1.546468 -2.914498 -17.891449 120 120 120 
-1.486989 -2.914498 -17.891449 121 121 121 
-1.422222 -2.903704 -17.825184 121 121 121 
-1.362963 -2.903704 -17.825184 122 122 122 
-1.284672 -2.861314 -17.564962 120 120 120 
-1.204301 -2.810036 -17.250179 119 119 119 
-1.142857 -2.800000 -17.188570 118 118 118 
-1.085714 -2.800000 -17.188570 118 118 118 
-1.028571 -2.800000 -17.188570 117 117 117 
-0.964539 -2.780142 -17.066666 116 116 116 
-0.920863 -2.820144 -17.312229 114 114 114 
-0.872727 -2.850909 -17.501091 115 115 115 
-0.817518 -2.861314 -17.564962 117 117 117 
-0.761905 -2.871795 -17.629303 117 117 117 
-0.705882 -2.882353 -17.694117 116 116 116 
-0.117359 -1.916870 -11.767237 118 118 118 
-0.077859 -1.907543 -11.709975 118 118 118 
-0.038929 -1.907543 -11.709975 117 117 117 
0.000000 -1.902913 -11.681553 117 117 117 
0.038835 -1.902913 -11.681553 120 120 120 
0.079012 -1.935802 -11.883456 120 120 120 
0.780488 -2.124661 -13.042818 113 113 113 
0.800000 -2.063158 -12.665262 113 113 113 
0.586081 -1.435897 -8.814651 117 117 117 
0.613139 -1.430657 -8.782481 115 115 115 
0.638838 -1.422868 -8.734664 114 114 114 
0.661870 -1.410072 -8.656115 111 111 111 
0.689408 -1.407540 -8.640574 112 112 112 
0.715564 -1.402504 -8.609660 108 108 108 
0.742857 -1.400000 -8.594285 106 106 106 
0.770053 -1.397504 -8.578966 106 106 106 
0.797153 -1.395018 -8.563701 107 107 107 
0.825623 -1.395018 -8.563701 105 105 105 
0.849558 -1.387611 -8.518229 106 106 106 
0.874780 -1.382716 -8.488183 110 110 110 
0.891986 -1.365854 -8.384668 112 112 112 
0.919861 -1.365854 -8.384668 109 109 109 
1.908772 -2.750877 -16.887016 109 109 109 
2.007169 -2.810036 -17.250179 106 106 106 
2.028169 -2.760563 -16.946478 106 106 106 
2.084507 -2.760563 -16.946478 110 110 110 
2.111111 -2.722222 -16.711111 111 111 111 
2.437500 -3.062500 -18.799999 112 112 112 
2.500000 -3.062500 -18.799999 108 108 108 
2.562500 -3.062500 -18.799999 105 105 105 
2.625000 -3.062500 -18.799999 104 104 104 
2.687500 -3.062500 -18.799999 104 104 104 
2.750000 -3.062500 -18.799999 104 104 104 
2.377709 -2.427245 -14.900309 101 101 101 
2.412308 -2.412308 -14.808615 97 97 97 
2.431611 -2.382979 -14.628571 92 92 92 
2.472727 -2.375758 -14.584242 91 91 91 
2.498498 -2.354354 -14.452852 93 93 93 
3.488722 -2.947368 -18.093233 89 89 89 
3.445256 -2.861314 -17.564962 85 85 85 
3.503650 -2.861314 -17.564962 86 86 86 
3.562044 -2.861314 -17.564962 90 90 90 
3.620438 -2.861314 -17.564962 83 83 83 
3.612903 -2.810036 -17.250179 78 78 78 
3.644128 -2.790035 -17.127401 77 77 77 
3.701068 -2.790035 -17.127401 75 75 75 
4.187500 -3.062500 -18.799999 71 71 71 
4.250000 -3.062500 -18.799999 69 69 69 
4.312500 -3.062500 -18.799999 67 67 67 
4.375000 -3.062500 -18.799999 67 67 67 
4.437500 -3.062500 -18.799999 67 67 67 
4.500000 -3.062500 -18.799999 62 62 62 
4.562500 -3.062500 -18.799999 60 60 60 
4.625000 -3.062500 -18.799999 58 58 58 
4.687500 -3.062500 -18.799999 57 57 57 
4.750000 -3.062500 -18.799999 57 57 57 
4.812500 -3.062500 -18.799999 65 65 65 
4.875000 -3.062500 -18.799999 78 78 78 
4.937500 -3.062500 -18.799999 84 84 84 
5.000000 -3.062500 -18.799999 88 88 88 
5.062500 -3.062500 -18.799999 89 89 89 
3.206681 -1.636743 -10.047599 78 78 78 
3.240083 -1.636743 -10.047599 77 77 77 
3.273486 -1.636743 -10.047599 75 75 75 
3.277890 -1.590264 -9.762272 65 65 65 
3.310345 -1.590264 -9.762272 66 66 66 
5.682759 -2.703448 -16.595861 62 62 62 
2.847458 -1.328814 -8.157288 58 58 58 
2.869712 -1.326565 -8.143485 57 57 57 
6.362018 -2.326410 -14.281305 45 45 45 
6.334311 -2.299120 -14.113783 46 46 46 
6.363112 -2.259366 -13.869740 60 60 60 
6.336182 -2.233618 -13.711680 58 58 58 
6.400000 -2.240000 -13.750856 54 54 54 
6.445714 -2.240000 -13.750856 54 54 54 
6.510029 -2.246418 -13.790257 52 52 52 
6.555874 -2.246418 -13.790257 52 52 52 
3.795717 -1.291598 -7.928830 54 54 54 
3.815789 -1.289474 -7.915789 55 55 55 
3.842105 -1.289474 -7.915789 53 53 53 
3.868421 -1.289474 -7.915789 53 53 53 
3.391617 -0.938922 -5.763832 42 42 42 
3.410779 -0.938922 -5.763832 41 41 41 
3.434053 -0.940048 -5.770743 41 41 41 
-4.251748 -2.797203 -16.827971 117 117 117 
-4.166667 -2.777778 -16.711111 116 116 116 
-4.111111 -2.777778 -16.711111 117 117 117 
-4.055555 -2.777778 -16.711111 118 118 118 
-4.000000 -2.777778 -16.711111 120 120 120 
-3.958188 -2.787457 -16.769337 123 123 123 
-3.523466 -2.888087 -17.374729 122 122 122 
-3.380282 -2.816901 -16.946478 121 121 121 
-3.289199 -2.787457 -16.769337 124 124 124 
-3.233449 -2.787457 -16.769337 126 126 126 
-3.155709 -2.768166 -16.653286 126 126 126 
-3.079038 -2.749141 -16.538832 124 124 124 
-3.034483 -2.758621 -16.595861 125 125 125 
-2.989619 -2.768166 -16.653286 128 128 128 
-2.944444 -2.777778 -16.711111 127 127 127 
-2.888889 -2.777778 -16.711111 126 126 126 
-2.833333 -2.777778 -16.711111 124 124 124 
-2.777778 -2.777778 -16.711111 124 124 124 
-2.741259 -2.797203 -16.827971 124 124 124 
-2.095847 -2.555911 -15.376357 123 123 123 
-2.044729 -2.555911 -15.376357 123 123 123 
-2.006431 -2.572347 -15.475241 125 125 125 
-1.961290 -2.580645 -15.525161 123 123 123 
-1.928339 -2.605863 -15.676872 119 119 119 
-1.882353 -2.614379 -15.728104 121 121 121 
-1.830065 -2.614379 -15.728104 123 123 123 
-1.783607 -2.622951 -15.779672 122 122 122 
-1.736842 -2.631579 -15.831578 121 121 121 
-2.000000 -3.125000 -18.799999 120 120 120 
-1.272727 -2.272727 -13.672727 121 121 121 
-1.223796 -2.266289 -13.633994 121 121 121 
-1.181818 -2.272727 -13.672727 119 119 119 
-1.136364 -2.272727 -13.672727 120 120 120 
-1.347985 -2.930403 -17.629303 119 119 119 
-1.257143 -2.857143 -17.188570 120 120 120 
-1.187279 -2.826855 -17.006359 118 118 118 
-1.126761 -2.816901 -16.946478 115 115 115 
-1.074205 -2.826855 -17.006359 114 114 114 
-1.014084 -2.816901 -16.946478 114 114 114 
-0.957747 -2.816901 -16.946478 116 116 116 
-0.901408 -2.816901 -16.946478 114 114 114 
-0.869565 -2.898551 -17.437681 114 114 114 
-0.814545 -2.909091 -17.501091 114 114 114 
-0.759124 -2.919708 -17.564962 115 115 115 
-0.116788 -1.946472 -11.709975 119 119 119 
-0.077295 -1.932367 -11.625120 117 117 117 
-0.038835 -1.941748 -11.681553 114 114 114 
0.000000 -1.941748 -11.681553 115 115 115 
0.038835 -1.941748 -11.681553 116 116 116 
0.531365 -1.476015 -8.879704 114 114 114 
0.556777 -1.465201 -8.814651 118 118 118 
0.583942 -1.459854 -8.782481 120 120 120 
0.609800 -1.451906 -8.734664 113 113 113 
0.633094 -1.438849 -8.656115 111 111 111 
0.660682 -1.436266 -8.640574 111 111 111 
0.686941 -1.431127 -8.609660 112 112 112 
0.714286 -1.428571 -8.594285 111 111 111 
0.741533 -1.426025 -8.578966 110 110 110 
0.768683 -1.423488 -8.563701 111 111 111 
0.794326 -1.418440 -8.533333 111 111 111 
0.821239 -1.415929 -8.518229 107 107 107 
0.842105 -1.403509 -8.443508 106 106 106 
0.864111 -1.393728 -8.384668 110 110 110 
0.888889 -1.388889 -8.355556 115 115 115 
0.916667 -1.388889 -8.355556 113 113 113 
0.944444 -1.388889 -8.355556 112 112 112 
2.021661 -2.888087 -17.374729 110 110 110 
2.437500 -3.125000 -18.799999 111 111 111 
2.500000 -3.125000 -18.799999 109 109 109 
2.562500 -3.125000 -18.799999 108 108 108 
2.625000 -3.125000 -18.799999 107 107 107 
2.687500 -3.125000 -18.799999 108 108 108 
2.750000 -3.125000 -18.799999 106 106 106 
3.488722 -3.007519 -18.093233 90 90 90 
3.432727 -2.909091 -17.501091 88 88 88 
3.490909 -2.909091 -17.501091 85 85 85 
3.562044 -2.919708 -17.564962 86 86 86 
3.568345 -2.877698 -17.312229 83 83 83 
3.549296 -2.816901 -16.946478 81 81 81 
3.580420 -2.797203 -16.827971 81 81 81 
3.623693 -2.787457 -16.769337 78 78 78 
4.187500 -3.125000 -18.799999 73 73 73 
4.250000 -3.125000 -18.799999 71 71 71 
4.312500 -3.125000 -18.799999 68 68 68 
4.375000 -3.125000 -18.799999 68 68 68 
4.437500 -3.125000 -18.799999 67 67 67 
4.500000 -3.125000 -18.799999 63 63 63 
4.562500 -3.125000 -18.799999 61 61 61 
4.625000 -3.125000 -18.799999 59 59 59 
4.687500 -3.125000 -18.799999 58 58 58 
4.750000 -3.125000 -18.799999 56 56 56 
4.812500 -3.125000 -18.799999 57 57 57 
4.875000 -3.125000 -18.799999 62 62 62 
4.937500 -3.125000 -18.799999 63 63 63 
5.000000 -3.125000 -18.799999 65 65 65 
5.062500 -3.125000 -18.799999 70 70 70 
3.206681 -1.670146 -10.047599 87 87 87 
3.233333 -1.666667 -10.026667 84 84 84 
3.277890 -1.622718 -9.762272 70 70 70 
3.290323 -1.612903 -9.703225 66 66 66 
3.322581 -1.612903 -9.703225 64 64 64 
3.328000 -1.600000 -9.625600 64 64 64 
2.842640 -1.353638 -8.143485 60 60 60 
2.869712 -1.353638 -8.143485 56 56 56 
2.901695 -1.355932 -8.157288 58 58 58 
6.380665 -2.416919 -14.540180 59 59 59 
6.333333 -2.380952 -14.323809 53 53 53 
6.324484 -2.359882 -14.197049 45 45 45 
6.334311 -2.346041 -14.113783 46 46 46 
6.354286 -2.285714 -13.750856 51 51 51 
6.400000 -2.285714 -13.750856 51 51 51 
6.445714 -2.285714 -13.750856 52 52 52 
6.510029 -2.292264 -13.790257 51 51 51 
7.581699 -2.614379 -15.728104 52 52 52 
7.609120 -2.605863 -15.676872 52 52 52 
3.892503 -1.131542 -6.807355 47 47 47 
3.407942 -0.962696 -5.791576 42 42 42 
3.414868 -0.959233 -5.770743 41 41 41 
8.549253 -2.388060 -14.366567 42 42 42 
8.597015 -2.388060 -14.366567 42 42 42 
-4.222222 -2.833333 -16.711111 117 117 117 
-4.166667 -2.833333 -16.711111 117 117 117 
-4.096886 -2.823529 -16.653286 119 119 119 
-4.041523 -2.823529 -16.653286 120 120 120 
-4.000000 -2.833333 -16.711111 122 122 122 
-3.944444 -2.833333 -16.711111 123 123 123 
-3.888889 -2.833333 -16.711111 125 125 125 
-3.820895 -3.044776 -17.958208 123 123 123 
-3.719557 -3.011070 -17.759409 124 124 124 
-3.647059 -3.000000 -17.694117 123 123 123 
-3.588235 -3.000000 -17.694117 123 123 123 
-3.404255 -2.893617 -17.066666 123 123 123 
-3.312281 -2.863158 -16.887016 125 125 125 
-3.233449 -2.843206 -16.769337 124 124 124 
-3.166667 -2.833333 -16.711111 121 121 121 
-3.100346 -2.823529 -16.653286 122 122 122 
-3.044983 -2.823529 -16.653286 122 122 122 
-2.989619 -2.823529 -16.653286 126 126 126 
-2.944444 -2.833333 -16.711111 127 127 127 
-2.888889 -2.833333 -16.711111 125 125 125 
-2.833333 -2.833333 -16.711111 124 124 124 
-2.777778 -2.833333 -16.711111 123 123 123 
-2.810036 -2.924731 -17.250179 124 124 124 
-2.625000 -3.187500 -18.799999 124 124 124 
-2.089172 -2.598726 -15.327388 124 124 124 
-2.031746 -2.590476 -15.278729 121 121 121 
-1.022951 -1.337705 -7.889836 122 122 122 
-0.998358 -1.339901 -7.902791 122 122 122 
-1.928339 -2.657980 -15.676872 121 121 121 
-1.882353 -2.666667 -15.728104 120 120 120 
-1.836066 -2.675410 -15.779672 122 122 122 
-1.783607 -2.675410 -15.779672 122 122 122 
-1.736842 -2.684211 -15.831578 123 123 123 
-1.223796 -2.311615 -13.633994 121 121 121 
-1.181818 -2.318182 -13.672727 120 120 120 
-1.136364 -2.318182 -13.672727 119 119 119 
-1.309609 -2.903915 -17.127401 114 114 114 
-1.235088 -2.863158 -16.887016 114 114 114 
-1.174825 -2.853147 -16.827971 115 115 115 
-1.114983 -2.843206 -16.769337 114 114 114 
-1.059233 -2.843206 -16.769337 112 112 112 
-1.003484 -2.843206 -16.769337 112 112 112 
-0.944444 -2.833333 -16.711111 113 113 113 
-0.901408 -2.873240 -16.946478 113 113 113 
-0.872727 -2.967273 -17.501091 117 117 117 
-0.817518 -2.978102 -17.564962 116 116 116 
-0.077295 -1.971014 -11.625120 113 113 113 
0.483019 -1.539623 -9.080754 114 114 114 
0.505576 -1.516729 -8.945724 114 114 114 
0.531365 -1.505535 -8.879704 113 113 113 
0.557798 -1.497248 -8.830826 117 117 117 
0.583942 -1.489051 -8.782481 118 118 118 
0.609800 -1.480944 -8.734664 113 113 113 
0.634234 -1.470270 -8.671711 112 112 112 
0.661870 -1.467626 -8.656115 111 111 111 
0.688172 -1.462366 -8.625090 110 110 110 
0.714286 -1.457143 -8.594285 112 112 112 
0.738899 -1.449378 -8.548490 113 113 113 
0.765957 -1.446808 -8.533333 114 114 114 
0.792920 -1.444248 -8.518229 115 115 115 
0.816901 -1.436620 -8.473239 113 113 113 
0.837696 -1.424084 -8.399302 109 109 109 
0.861111 -1.416667 -8.355556 112 112 112 
0.888889 -1.416667 -8.355556 116 116 116 
0.916667 -1.416667 -8.355556 115 115 115 
0.944444 -1.416667 -8.355556 112 112 112 
0.972222 -1.416667 -8.355556 112 112 112 
2.437500 -3.187500 -18.799999 110 110 110 
2.500000 -3.187500 -18.799999 112 112 112 
2.562500 -3.187500 -18.799999 112 112 112 
2.625000 -3.187500 -18.799999 108 108 108 
2.687500 -3.187500 -18.799999 107 107 107 
2.750000 -3.187500 -18.799999 105 105 105 
3.371428 -2.914286 -17.188570 89 89 89 
3.428571 -2.914286 -17.188570 84 84 84 
3.460993 -2.893617 -17.066666 83 83 83 
3.517730 -2.893617 -17.066666 84 84 84 
3.524476 -2.853147 -16.827971 81 81 81 
3.555556 -2.833333 -16.711111 79 79 79 
3.611111 -2.833333 -16.711111 78 78 78 
3.666667 -2.833333 -16.711111 77 77 77 
4.187500 -3.187500 -18.799999 76 76 76 
4.250000 -3.187500 -18.799999 74 74 74 
4.312500 -3.187500 -18.799999 71 71 71 
4.375000 -3.187500 -18.799999 69 69 69 
4.437500 -3.187500 -18.799999 67 67 67 
4.500000 -3.187500 -18.799999 64 64 64 
4.562500 -3.187500 -18.799999 63 63 63 
4.625000 -3.187500 -18.799999 62 62 62 
4.687500 -3.187500 -18.799999 60 60 60 
4.750000 -3.187500 -18.799999 57 57 57 
4.812500 -3.187500 -18.799999 55 55 55 
4.875000 -3.187500 -18.799999 55 55 55 
4.937500 -3.187500 -18.799999 54 54 54 
5.000000 -3.187500 -18.799999 53 53 53 
5.062500 -3.187500 -18.799999 58 58 58 
5.125000 -3.187500 -18.799999 60 60 60 
3.286307 -1.692946 -9.985062 74 74 74 
3.292181 -1.679012 -9.902881 78 78 78 
3.251509 -1.641851 -9.683702 77 77 77 
3.277108 -1.638554 -9.664257 68 68 68 
3.302605 -1.635271 -9.644890 65 65 65 
3.328000 -1.632000 -9.625600 65 65 65 
2.847458 -1.383051 -8.157288 62 62 62 
2.874576 -1.383051 -8.157288 57 57 57 
3.212008 -1.530957 -9.029643 58 58 58 
3.254237 -1.536723 -9.063653 60 60 60 
3.334608 -1.560229 -9.202294 59 59 59 
3.365201 -1.560229 -9.202294 57 57 57 
4.826087 -2.217391 -13.078260 56 56 56 
6.332326 -2.465257 -14.540180 67 67 67 
6.323353 -2.443114 -14.409580 60 60 60 
6.333333 -2.428571 -14.323809 53 53 53 
6.324484 -2.407080 -14.197049 50 50 50 
6.352941 -2.400000 -14.155293 49 49 49 
6.418879 -2.407080 -14.197049 50 50 50 
6.354286 -2.331429 -13.750856 54 54 54 
6.400000 -2.331429 -13.750856 54 54 54 
6.445714 -2.331429 -13.750856 56 56 56 
6.566474 -2.358382 -13.909826 55 55 55 
3.869873 -1.154173 -6.807355 45 45 45 
3.892503 -1.154173 -6.807355 47 47 47 
3.915134 -1.154173 -6.807355 46 46 46 
3.954545 -1.159091 -6.836363 43 43 43 
8.501493 -2.435821 -14.366567 40 40 40 
8.597015 -2.435821 -14.366567 42 42 42 
-4.222222 -2.888889 -16.711111 117 117 117 
-4.152249 -2.878893 -16.653286 118 118 118 
-4.082758 -2.868966 -16.595861 120 120 120 
-4.041523 -2.878893 -16.653286 121 121 121 
-3.972414 -2.868966 -16.595861 122 122 122 
-3.917241 -2.868966 -16.595861 122 122 122 
-3.888889 -2.888889 -16.711111 123 123 123 
-3.846690 -2.898955 -16.769337 121 121 121 
-3.880597 -3.104478 -17.958208 123 123 123 
-3.792593 -3.081481 -17.825184 124 124 124 
-3.719557 -3.070111 -17.759409 122 122 122 
-3.290780 -2.950355 -17.066666 122 122 122 
-3.177700 -2.898955 -16.769337 119 119 119 
-3.100346 -2.878893 -16.653286 119 119 119 
-3.024055 -2.859107 -16.538832 120 120 120 
-2.969072 -2.859107 -16.538832 121 121 121 
-2.944444 -2.888889 -16.711111 121 121 121 
-2.909091 -2.909091 -16.827971 122 122 122 
-2.893617 -2.950355 -17.066666 121 121 121 
-2.867383 -2.982079 -17.250179 120 120 120 
-2.882353 -3.058824 -17.694117 122 122 122 
-2.855019 -3.092937 -17.891449 121 121 121 
-2.750000 -3.250000 -18.799999 122 122 122 
-2.687500 -3.250000 -18.799999 121 121 121 
-2.625000 -3.250000 -18.799999 120 120 120 
-1.077176 -1.366174 -7.902791 118 118 118 
-1.049180 -1.363934 -7.889836 120 120 120 
-1.022951 -1.363934 -7.889836 119 119 119 
-0.996721 -1.363934 -7.889836 120 120 120 
-0.972085 -1.366174 -7.902791 122 122 122 
-1.888525 -2.727869 -15.779672 123 123 123 
-1.842105 -2.736842 -15.831578 121 121 121 
-1.789474 -2.736842 -15.831578 120 120 120 
-1.736842 -2.736842 -15.831578 122 122 122 
-1.684211 -2.736842 -15.831578 120 120 120 
-1.512727 -3.025455 -17.501091 121 121 121 
-1.444043 -3.003610 -17.374729 119 119 119 
-1.356890 -2.939929 -17.006359 118 118 118 
-1.291228 -2.919298 -16.887016 114 114 114 
-1.230769 -2.909091 -16.827971 114 114 114 
-1.170732 -2.898955 -16.769337 114 114 114 
-1.111111 -2.888889 -16.711111 115 115 115 
-1.055556 -2.888889 -16.711111 113 113 113 
-1.000000 -2.888889 -16.711111 112 112 112 
-0.937931 -2.868966 -16.595861 110 110 110 
-0.882759 -2.868966 -16.595861 111 111 111 
-0.827586 -2.868966 -16.595861 111 111 111 
0.483019 -1.569811 -9.080754 118 118 118 
0.508411 -1.555140 -8.995888 116 116 116 
0.580645 -1.677419 -9.703225 116 116 116 
0.612022 -1.515483 -8.766484 115 115 115 
0.633094 -1.496403 -8.656115 113 113 113 
0.657143 -1.485714 -8.594285 111 111 111 
0.682060 -1.477798 -8.548490 115 115 115 
0.710480 -1.477798 -8.548490 115 115 115 
0.737589 -1.475177 -8.533333 112 112 112 
0.761905 -1.467372 -8.488183 112 112 112 
0.785965 -1.459649 -8.443508 117 117 117 
0.811189 -1.454545 -8.413985 118 118 118 
0.834783 -1.446957 -8.370087 112 112 112 
0.861111 -1.444444 -8.355556 110 110 110 
0.888889 -1.444444 -8.355556 111 111 111 
0.916667 -1.444444 -8.355556 110 110 110 
0.944444 -1.444444 -8.355556 107 107 107 
0.972222 -1.444444 -8.355556 112 112 112 
1.000000 -1.444444 -8.355556 110 110 110 
2.437500 -3.250000 -18.799999 107 107 107 
2.500000 -3.250000 -18.799999 108 108 108 
2.562500 -3.250000 -18.799999 110 110 110 
2.625000 -3.250000 -18.799999 106 106 106 
2.687500 -3.250000 -18.799999 105 105 105 
2.750000 -3.250000 -18.799999 104 104 104 
2.812500 -3.250000 -18.799999 106 106 106 
2.875000 -3.250000 -18.799999 105 105 105 
2.937500 -3.250000 -18.799999 104 104 104 
3.000000 -3.250000 -18.799999 104 104 104 
3.371428 -2.971429 -17.188570 86 86 86 
3.428571 -2.971429 -17.188570 83 83 83 
3.460993 -2.950355 -17.066666 83 83 83 
3.517730 -2.950355 -17.066666 84 84 84 
3.524476 -2.909091 -16.827971 79 79 79 
3.555556 -2.888889 -16.711111 77 77 77 
3.611111 -2.888889 -16.711111 77 77 77 
3.666667 -2.888889 -16.711111 76 76 76 
4.187500 -3.250000 -18.799999 76 76 76 
4.250000 -3.250000 -18.799999 75 75 75 
4.312500 -3.250000 -18.799999 71 71 71 
4.375000 -3.250000 -18.799999 69 69 69 
4.437500 -3.250000 -18.799999 68 68 68 
4.500000 -3.250000 -18.799999 66 66 66 
4.562500 -3.250000 -18.799999 64 64 64 
4.625000 -3.250000 -18.799999 62 62 62 
4.687500 -3.250000 -18.799999 59 59 59 
4.750000 -3.250000 -18.799999 56 56 56 
4.812500 -3.250000 -18.799999 55 55 55 
4.875000 -3.250000 -18.799999 55 55 55 
4.937500 -3.250000 -18.799999 54 54 54 
5.000000 -3.250000 -18.799999 52 52 52 
5.062500 -3.250000 -18.799999 52 52 52 
5.125000 -3.250000 -18.799999 51 51 51 
5.187500 -3.250000 -18.799999 51 51 51 
3.266667 -1.733333 -10.026667 92 92 92 
3.272727 -1.719008 -9.943801 78 78 78 
3.245436 -1.687627 -9.762272 83 83 83 
3.251509 -1.674044 -9.683702 80 80 80 
3.277108 -1.670683 -9.664257 71 71 71 
3.309237 -1.670683 -9.664257 62 62 62 
3.341366 -1.670683 -9.664257 64 64 64 
3.200000 -1.584762 -9.167237 65 65 65 
3.187970 -1.563910 -9.046617 61 61 61 
3.212008 -1.560976 -9.029643 59 59 59 
3.242026 -1.560976 -9.029643 60 60 60 
3.272045 -1.560976 -9.029643 58 58 58 
3.308271 -1.563910 -9.046617 55 55 55 
3.363636 -1.575758 -9.115151 55 55 55 
4.869565 -2.260870 -13.078260 55 55 55 
6.283988 -2.513595 -14.540180 58 58 58 
6.332326 -2.513595 -14.540180 63 63 63 
6.323353 -2.491018 -14.409580 57 57 57 
6.314540 -2.468843 -14.281305 51 51 51 
6.324484 -2.454277 -14.197049 51 51 51 
6.334311 -2.439883 -14.113783 52 52 52 
6.362573 -2.432749 -14.072514 53 53 53 
6.280802 -2.383954 -13.790257 55 55 55 
6.308571 -2.377143 -13.750856 57 57 57 
6.354286 -2.377143 -13.750856 60 60 60 
6.400000 -2.377143 -13.750856 60 60 60 
6.445714 -2.377143 -13.750856 60 60 60 
3.869873 -1.176803 -6.807355 43 43 43 
3.892503 -1.176803 -6.807355 45 45 45 
3.915134 -1.176803 -6.807355 45 45 45 
3.943343 -1.178470 -6.816997 42 42 42 
3.977273 -1.181818 -6.836363 41 41 41 
8.571428 -2.476191 -14.323809 43 43 43 
-4.222222 -2.944444 -16.711111 120 120 120 
-4.137931 -2.924138 -16.595861 122 122 122 
-4.082758 -2.924138 -16.595861 123 123 123 
-4.027586 -2.924138 -16.595861 123 123 123 
-3.972414 -2.924138 -16.595861 122 122 122 
-3.917241 -2.924138 -16.595861 122 122 122 
-3.862069 -2.924138 -16.595861 122 122 122 
-3.833333 -2.944444 -16.711111 124 124 124 
-3.880597 -3.164179 -17.958208 120 120 120 
-3.820895 -3.164179 -17.958208 122 122 122 
-3.200000 -2.975439 -16.887016 120 120 120 
-3.058021 -2.894198 -16.425938 121 121 121 
-2.894737 -2.789474 -15.831578 120 120 120 
-2.823529 -2.771242 -15.728104 118 118 118 
-2.762215 -2.762215 -15.676872 118 118 118 
-2.909091 -2.965035 -16.827971 118 118 118 
-2.893617 -3.007092 -17.066666 118 118 118 
-2.867383 -3.039427 -17.250179 118 118 118 
-2.810036 -3.039427 -17.250179 121 121 121 
-2.400000 -2.650000 -15.039999 122 122 122 
-2.328173 -2.625387 -14.900309 119 119 119 
-2.687500 -3.312500 -18.799999 116 116 116 
-1.103448 -1.392447 -7.902791 116 116 116 
-1.077176 -1.392447 -7.902791 118 118 118 
-1.049180 -1.390164 -7.889836 120 120 120 
-1.022951 -1.390164 -7.889836 117 117 117 
-0.996721 -1.390164 -7.889836 115 115 115 
-0.972085 -1.392447 -7.902791 119 119 119 
-1.894737 -2.789474 -15.831578 121 121 121 
-1.842105 -2.789474 -15.831578 119 119 119 
-1.789474 -2.789474 -15.831578 122 122 122 
-1.736842 -2.789474 -15.831578 122 122 122 
-1.684211 -2.789474 -15.831578 121 121 121 
-1.275064 -2.179949 -12.372236 122 122 122 
-1.444043 -3.061372 -17.374729 116 116 116 
-1.356890 -2.996466 -17.006359 117 117 117 
-1.286713 -2.965035 -16.827971 118 118 118 
-1.222222 -2.944444 -16.711111 121 121 121 
-1.162630 -2.934256 -16.653286 119 119 119 
-1.111111 -2.944444 -16.711111 118 118 118 
-1.055556 -2.944444 -16.711111 117 117 117 
-0.996540 -2.934256 -16.653286 116 116 116 
-0.934708 -2.914089 -16.538832 114 114 114 
-0.879725 -2.914089 -16.538832 114 114 114 
-0.819113 -2.894198 -16.425938 109 109 109 
0.551724 -1.720081 -9.762272 116 116 116 
0.584179 -1.720081 -9.762272 115 115 115 
0.520710 -1.254438 -7.119526 114 114 114 
0.543575 -1.252585 -7.109010 109 109 109 
0.568047 -1.254438 -7.119526 118 118 118 
0.705467 -1.495591 -8.488183 120 120 120 
0.733686 -1.495591 -8.488183 117 117 117 
0.761905 -1.495591 -8.488183 117 117 117 
0.785965 -1.487719 -8.443508 116 116 116 
0.808362 -1.477352 -8.384668 115 115 115 
0.833333 -1.472222 -8.355556 109 109 109 
0.861111 -1.472222 -8.355556 105 105 105 
0.888889 -1.472222 -8.355556 105 105 105 
0.915078 -1.469671 -8.341074 107 107 107 
0.944444 -1.472222 -8.355556 106 106 106 
0.970537 -1.469671 -8.341074 110 110 110 
1.000000 -1.472222 -8.355556 112 112 112 
2.437500 -3.312500 -18.799999 109 109 109 
2.500000 -3.312500 -18.799999 117 117 117 
2.562500 -3.312500 -18.799999 118 118 118 
2.625000 -3.312500 -18.799999 110 110 110 
2.687500 -3.312500 -18.799999 110 110 110 
2.750000 -3.312500 -18.799999 109 109 109 
2.812500 -3.312500 -18.799999 104 104 104 
2.875000 -3.312500 -18.799999 103 103 103 
2.937500 -3.312500 -18.799999 101 101 101 
3.000000 -3.312500 -18.799999 103 103 103 
3.062500 -3.312500 -18.799999 102 102 102 
3.669173 -3.187970 -18.093233 83 83 83 
3.729323 -3.187970 -18.093233 84 84 84 
3.549296 -2.985915 -16.946478 81 81 81 
3.580420 -2.965035 -16.827971 76 76 76 
3.611111 -2.944444 -16.711111 74 74 74 
4.250000 -3.312500 -18.799999 73 73 73 
4.166038 -3.200000 -18.161509 71 71 71 
4.194757 -3.176030 -18.025467 70 70 70 
4.437500 -3.312500 -18.799999 67 67 67 
4.500000 -3.312500 -18.799999 65 65 65 
4.562500 -3.312500 -18.799999 63 63 63 
4.625000 -3.312500 -18.799999 62 62 62 
4.687500 -3.312500 -18.799999 59 59 59 
4.750000 -3.312500 -18.799999 56 56 56 
4.812500 -3.312500 -18.799999 55 55 55 
4.875000 -3.312500 -18.799999 55 55 55 
4.937500 -3.312500 -18.799999 53 53 53 
5.000000 -3.312500 -18.799999 52 52 52 
5.062500 -3.312500 -18.799999 50 50 50 
5.125000 -3.312500 -18.799999 48 48 48 
5.187500 -3.312500 -18.799999 50 50 50 
5.250000 -3.312500 -18.799999 52 52 52 
3.272727 -1.752066 -9.943801 87 87 87 
3.285421 -1.741273 -9.882545 86 86 86 
3.271255 -1.716599 -9.742510 80 80 80 
3.277108 -1.702811 -9.664257 75 75 75 
3.200000 -1.615238 -9.167237 67 67 67 
3.187970 -1.593985 -9.046617 66 66 66 
3.205992 -1.588015 -9.012733 61 61 61 
3.211896 -1.576208 -8.945724 60 60 60 
3.241636 -1.576208 -8.945724 58 58 58 
3.271375 -1.576208 -8.945724 55 55 55 
3.294991 -1.573284 -8.929128 55 55 55 
3.368421 -1.593985 -9.046617 55 55 55 
6.216867 -2.554217 -14.496385 60 60 60 
6.227545 -2.538922 -14.409580 53 53 53 
6.313253 -2.554217 -14.496385 57 57 57 
6.304478 -2.531343 -14.366567 56 56 56 
6.314540 -2.516320 -14.281305 50 50 50 
6.305882 -2.494118 -14.155293 55 55 55 
6.315790 -2.479532 -14.072514 55 55 55 
6.234957 -2.429799 -13.790257 53 53 53 
6.227273 -2.409091 -13.672727 55 55 55 
6.254958 -2.402266 -13.633994 56 56 56 
6.300283 -2.402266 -13.633994 62 62 62 
6.309859 -2.388732 -13.557182 65 65 65 
6.427351 -2.415954 -13.711680 62 62 62 
3.892503 -1.199434 -6.807355 45 45 45 
3.915134 -1.199434 -6.807355 44 44 44 
3.937765 -1.199434 -6.807355 42 42 42 
3.971631 -1.202837 -6.826666 41 41 41 
8.549253 -2.531343 -14.366567 47 47 47 
8.571428 -2.523809 -14.323809 46 46 46 
11.040590 -3.129151 -17.759409 38 38 38 
-4.222222 -3.000000 -16.711111 118 118 118 
-4.137931 -2.979310 -16.595861 120 120 120 
-4.082758 -2.979310 -16.595861 124 124 124 
-4.027586 -2.979310 -16.595861 123 123 123 
-3.972414 -2.979310 -16.595861 123 123 123 
-3.903780 -2.969072 -16.538832 123 123 123 
-3.888889 -3.000000 -16.711111 127 127 127 
-3.895131 -3.235955 -18.025467 120 120 120 
-3.849624 -3.248120 -18.093233 117 117 117 
-2.947368 -2.842105 -15.831578 118 118 118 
-2.866450 -2.814332 -15.676872 118 118 118 
-2.805195 -2.805195 -15.625974 117 117 117 
-2.735484 -2.787097 -15.525161 117 117 117 
-2.641270 -2.742857 -15.278729 118 118 118 
-2.590476 -2.742857 -15.278729 118 118 118 
-2.523659 -2.725552 -15.182334 119 119 119 
-2.450000 -2.700000 -15.039999 120 120 120 
-2.363077 -2.658462 -14.808615 118 118 118 
-2.306748 -2.650307 -14.763189 114 114 114 
-2.257669 -2.650307 -14.763189 114 114 114 
-2.812500 -3.375000 -18.799999 115 115 115 
-2.687500 -3.375000 -18.799999 114 114 114 
-1.105263 -1.421053 -7.915789 116 116 116 
-1.077176 -1.418719 -7.902791 121 121 121 
-1.050903 -1.418719 -7.902791 121 121 121 
-1.024631 -1.418719 -7.902791 118 118 118 
-0.998358 -1.418719 -7.902791 118 118 118 
-1.789474 -2.842105 -15.831578 124 124 124 
-1.736842 -2.842105 -15.831578 122 122 122 
-1.316195 -2.221080 -12.372236 123 123 123 
-1.258883 -2.192894 -12.215228 125 125 125 
-1.218274 -2.192894 -12.215228 123 123 123 
-1.501805 -3.119133 -17.374729 117 117 117 
-1.438849 -3.107914 -17.312229 114 114 114 
-1.347368 -3.031579 -16.887016 115 115 115 
-1.286713 -3.020979 -16.827971 117 117 117 
-1.222222 -3.000000 -16.711111 120 120 120 
-1.162630 -2.989619 -16.653286 116 116 116 
-1.111111 -3.000000 -16.711111 113 113 113 
-1.055556 -3.000000 -16.711111 114 114 114 
-0.996540 -2.989619 -16.653286 116 116 116 
-0.934708 -2.969072 -16.538832 114 114 114 
-0.870748 -2.938776 -16.370068 112 112 112 
-0.816327 -2.938776 -16.370068 112 112 112 
0.551724 -1.752535 -9.762272 115 115 115 
0.584179 -1.752535 -9.762272 114 114 114 
0.612903 -1.741935 -9.703225 112 112 112 
0.677419 -1.741935 -9.703225 116 116 116 
0.519941 -1.276219 -7.109010 115 115 115 
0.540382 -1.268722 -7.067254 113 113 113 
0.567208 -1.276219 -7.109010 117 117 117 
0.590842 -1.276219 -7.109010 118 118 118 
0.616296 -1.280000 -7.130074 113 113 113 
0.785965 -1.515790 -8.443508 112 112 112 
0.808362 -1.505226 -8.384668 113 113 113 
0.833333 -1.500000 -8.355556 108 108 108 
0.859619 -1.497400 -8.341074 108 108 108 
0.887348 -1.497400 -8.341074 108 108 108 
0.915078 -1.497400 -8.341074 110 110 110 
0.944444 -1.500000 -8.355556 109 109 109 
0.972222 -1.500000 -8.355556 110 110 110 
2.250000 -3.375000 -18.799999 111 111 111 
2.312500 -3.375000 -18.799999 111 111 111 
2.375000 -3.375000 -18.799999 111 111 111 
2.437500 -3.375000 -18.799999 114 114 114 
2.500000 -3.375000 -18.799999 120 120 120 
2.562500 -3.375000 -18.799999 122 122 122 
2.625000 -3.375000 -18.799999 114 114 114 
2.687500 -3.375000 -18.799999 111 111 111 
2.750000 -3.375000 -18.799999 111 111 111 
2.812500 -3.375000 -18.799999 107 107 107 
2.875000 -3.375000 -18.799999 104 104 104 
2.937500 -3.375000 -18.799999 105 105 105 
3.000000 -3.375000 -18.799999 106 106 106 
3.812500 -3.375000 -18.799999 85 85 85 
3.875000 -3.375000 -18.799999 83 83 83 
3.705882 -3.176471 -17.694117 81 81 81 
3.764706 -3.176471 -17.694117 78 78 78 
4.250000 -3.375000 -18.799999 74 74 74 
4.134831 -3.235955 -18.025467 74 74 74 
4.194757 -3.235955 -18.025467 72 72 72 
4.270677 -3.248120 -18.093233 68 68 68 
4.500000 -3.375000 -18.799999 66 66 66 
4.562500 -3.375000 -18.799999 63 63 63 
4.625000 -3.375000 -18.799999 62 62 62 
4.687500 -3.375000 -18.799999 60 60 60 
4.750000 -3.375000 -18.799999 57 57 57 
4.812500 -3.375000 -18.799999 55 55 55 
4.875000 -3.375000 -18.799999 54 54 54 
4.937500 -3.375000 -18.799999 54 54 54 
5.000000 -3.375000 -18.799999 53 53 53 
5.062500 -3.375000 -18.799999 51 51 51 
5.125000 -3.375000 -18.799999 51 51 51 
5.187500 -3.375000 -18.799999 52 52 52 
5.250000 -3.375000 -18.799999 51 51 51 
5.312500 -3.375000 -18.799999 50 50 50 
3.305785 -1.785124 -9.943801 77 77 77 
3.338843 -1.785124 -9.943801 74 74 74 
3.371901 -1.785124 -9.943801 74 74 74 
3.181818 -1.636364 -9.115151 66 66 66 
3.176030 -1.617977 -9.012733 68 68 68 
3.176252 -1.602968 -8.929128 61 61 61 
3.200000 -1.600000 -8.912592 59 59 59 
3.223660 -1.597043 -8.896118 58 58 58 
3.253235 -1.597043 -8.896118 56 56 56 
3.282809 -1.597043 -8.896118 56 56 56 
2.962963 -1.280000 -7.130074 54 54 54 
2.977844 -1.276219 -7.109010 54 54 54 
2.997050 -1.274336 -7.098525 53 53 53 
3.020649 -1.274336 -7.098525 56 56 56 
6.179641 -2.586826 -14.409580 57 57 57 
6.314540 -2.563798 -14.281305 51 51 51 
6.287390 -2.533724 -14.113783 57 57 57 
6.297376 -2.518950 -14.031487 56 56 56 
6.181818 -2.454545 -13.672727 53 53 53 
6.227273 -2.454545 -13.672727 57 57 57 
6.254958 -2.447592 -13.633994 57 57 57 
6.300283 -2.447592 -13.633994 59 59 59 
6.309859 -2.433803 -13.557182 64 64 64 
6.409091 -2.454545 -13.672727 68 68 68 
7.369085 -2.725552 -15.182334 63 63 63 
7.373041 -2.708464 -15.087147 67 67 67 
7.400000 -2.700000 -15.039999 67 67 67 
3.915134 -1.222065 -6.807355 47 47 47 
3.937765 -1.222065 -6.807355 45 45 45 
3.966006 -1.223796 -6.816997 42 42 42 
8.501493 -2.579104 -14.366567 44 44 44 
8.523809 -2.571429 -14.323809 47 47 47 
8.545994 -2.563798 -14.281305 47 47 47 
8.593472 -2.563798 -14.281305 47 47 47 
11.375000 -3.375000 -18.799999 47 47 47 
11.562500 -3.375000 -18.799999 37 37 37 
10.981550 -3.188192 -17.759409 37 37 37 
11.000000 -3.176471 -17.694117 37 37 37 
-4.222222 -3.055556 -16.711111 120 120 120 
-4.137931 -3.034483 -16.595861 121 121 121 
-4.082758 -3.034483 -16.595861 122 122 122 
-4.027586 -3.034483 -16.595861 122 122 122 
-3.972414 -3.034483 -16.595861 121 121 121 
-3.903780 -3.024055 -16.538832 123 123 123 
-3.793814 -3.024055 -16.538832 123 123 123 
-3.090909 -2.500000 -13.672727 119 119 119 
-3.045455 -2.500000 -13.672727 118 118 118 
-3.940299 -3.283582 -17.958208 119 119 119 
-3.909775 -3.308271 -18.093233 118 118 118 
-2.857143 -2.857143 -15.625974 118 118 118 
-2.787097 -2.838710 -15.525161 118 118 118 
-2.666667 -2.767296 -15.134590 116 116 116 
-2.608150 -2.758621 -15.087147 116 116 116 
-2.550000 -2.750000 -15.039999 116 116 116 
-2.500000 -2.750000 -15.039999 119 119 119 
-2.427245 -2.724458 -14.900309 120 120 120 
-2.355828 -2.699387 -14.763189 116 116 116 
-2.278788 -2.666667 -14.584242 116 116 116 
-2.203593 -2.634731 -14.409580 114 114 114 
-2.149254 -2.626866 -14.366567 117 117 117 
-2.041543 -2.611276 -14.281305 114 114 114 
-1.105263 -1.447368 -7.915789 115 115 115 
-1.078947 -1.447368 -7.915789 119 119 119 
-1.050903 -1.444992 -7.902791 124 124 124 
-1.024631 -1.444992 -7.902791 122 122 122 
-1.000000 -1.447368 -7.915789 120 120 120 
-0.975288 -1.449753 -7.928830 122 122 122 
-1.736842 -2.894737 -15.831578 119 119 119 
-1.312821 -2.256410 -12.340512 118 118 118 
-1.258883 -2.233503 -12.215228 122 122 122 
-1.218274 -2.233503 -12.215228 124 124 124 
-1.501805 -3.176895 -17.374729 114 114 114 
-1.438849 -3.165468 -17.312229 117 117 117 
-1.347368 -3.087719 -16.887016 116 116 116 
-1.291228 -3.087719 -16.887016 116 116 116 
-1.222222 -3.055556 -16.711111 115 115 115 
-1.162630 -3.044983 -16.653286 112 112 112 
-0.925170 -2.993197 -16.370068 115 115 115 
-0.690027 -2.371968 -12.972507 111 111 111 
-0.646900 -2.371968 -12.972507 115 115 115 
0.551724 -1.784990 -9.762272 114 114 114 
0.581818 -1.777778 -9.722828 115 115 115 
0.612903 -1.774194 -9.703225 116 116 116 
1.244444 -3.259259 -17.825184 122 122 122 
1.303704 -3.259259 -17.825184 117 117 117 
0.542773 -1.297935 -7.098525 115 115 115 
0.567208 -1.299852 -7.109010 117 117 117 
0.591716 -1.301775 -7.119526 117 117 117 
1.546468 -3.271375 -17.891449 119 119 119 
0.833333 -1.527778 -8.355556 110 110 110 
0.859619 -1.525130 -8.341074 112 112 112 
0.887348 -1.525130 -8.341074 113 113 113 
0.916667 -1.527778 -8.355556 112 112 112 
2.125000 -3.437500 -18.799999 111 111 111 
2.187500 -3.437500 -18.799999 111 111 111 
2.250000 -3.437500 -18.799999 113 113 113 
2.312500 -3.437500 -18.799999 114 114 114 
2.375000 -3.437500 -18.799999 113 113 113 
2.437500 -3.437500 -18.799999 112 112 112 
2.500000 -3.437500 -18.799999 112 112 112 
2.562500 -3.437500 -18.799999 114 114 114 
2.625000 -3.437500 -18.799999 114 114 114 
2.687500 -3.437500 -18.799999 109 109 109 
2.750000 -3.437500 -18.799999 113 113 113 
2.812500 -3.437500 -18.799999 109 109 109 
2.875000 -3.437500 -18.799999 106 106 106 
2.937500 -3.437500 -18.799999 108 108 108 
3.000000 -3.437500 -18.799999 108 108 108 
4.187500 -3.437500 -18.799999 74 74 74 
4.250000 -3.437500 -18.799999 74 74 74 
4.312500 -3.437500 -18.799999 75 75 75 
4.194757 -3.295880 -18.025467 72 72 72 
4.270677 -3.308271 -18.093233 69 69 69 
4.500000 -3.437500 -18.799999 66 66 66 
4.562500 -3.437500 -18.799999 63 63 63 
4.625000 -3.437500 -18.799999 62 62 62 
4.687500 -3.437500 -18.799999 60 60 60 
4.750000 -3.437500 -18.799999 58 58 58 
4.812500 -3.437500 -18.799999 56 56 56 
4.875000 -3.437500 -18.799999 55 55 55 
4.937500 -3.437500 -18.799999 54 54 54 
5.000000 -3.437500 -18.799999 53 53 53 
5.062500 -3.437500 -18.799999 53 53 53 
5.125000 -3.437500 -18.799999 53 53 53 
5.187500 -3.437500 -18.799999 53 53 53 
5.250000 -3.437500 -18.799999 52 52 52 
5.312500 -3.437500 -18.799999 51 51 51 
5.375000 -3.437500 -18.799999 51 51 51 
3.340292 -1.837161 -10.047599 67 67 67 
3.175803 -1.663516 -9.097920 68 68 68 
3.176030 -1.647940 -9.012733 67 67 67 
3.176252 -1.632653 -8.929128 62 62 62 
3.182320 -1.620626 -8.863352 60 60 60 
3.211786 -1.620626 -8.863352 59 59 59 
3.253235 -1.626617 -8.896118 56 56 56 
3.288889 -1.629630 -8.912592 54 54 54 
2.796562 -1.260745 -6.895129 55 55 55 
2.831655 -1.266187 -6.924892 53 53 53 
2.887918 -1.280932 -7.005531 52 52 52 
2.928258 -1.288433 -7.046559 56 56 56 
2.951684 -1.288433 -7.046559 53 53 53 
2.975110 -1.288433 -7.046559 52 52 52 
2.998536 -1.288433 -7.046559 55 55 55 
3.039764 -1.296024 -7.088070 57 57 57 
6.362018 -2.611276 -14.281305 53 53 53 
6.189112 -2.521490 -13.790257 53 53 53 
6.217143 -2.514286 -13.750856 57 57 57 
6.227273 -2.500000 -13.672727 68 68 68 
6.272727 -2.500000 -13.672727 60 60 60 
6.318182 -2.500000 -13.672727 56 56 56 
6.363636 -2.500000 -13.672727 57 57 57 
6.427351 -2.507123 -13.711680 65 65 65 
7.361022 -2.811502 -15.376357 54 54 54 
7.295598 -2.767296 -15.134590 56 56 56 
7.322884 -2.758621 -15.087147 59 59 59 
7.350000 -2.750000 -15.039999 61 61 61 
7.400000 -2.750000 -15.039999 70 70 70 
7.450000 -2.750000 -15.039999 70 70 70 
3.932203 -1.242938 -6.797740 44 44 44 
3.960396 -1.244696 -6.807355 42 42 42 
8.479042 -2.634731 -14.409580 46 46 46 
8.501493 -2.626866 -14.366567 44 44 44 
8.523809 -2.619048 -14.323809 45 45 45 
8.545994 -2.611276 -14.281305 46 46 46 
8.593472 -2.611276 -14.281305 47 47 47 
11.375000 -3.437500 -18.799999 46 46 46 
11.437500 -3.437500 -18.799999 39 39 39 
11.500000 -3.437500 -18.799999 36 36 36 
11.003717 -3.271375 -17.891449 37 37 37 
10.941176 -3.235294 -17.694117 37 37 37 
11.000000 -3.235294 -17.694117 38 38 38 
-4.193103 -3.089655 -16.595861 119 119 119 
-4.123711 -3.079038 -16.538832 121 121 121 
-4.082758 -3.089655 -16.595861 123 123 123 
-3.181818 -2.545455 -13.672727 118 118 118 
-3.127479 -2.538244 -13.633994 117 117 117 
-3.090909 -2.545455 -13.672727 114 114 114 
-3.045455 -2.545455 -13.672727 113 113 113 
-3.000000 -2.545455 -13.672727 117 117 117 
-3.909775 -3.368421 -18.093233 117 117 117 
-2.838710 -2.890323 -15.525161 119 119 119 
-2.716981 -2.817610 -15.134590 120 120 120 
-2.650000 -2.800000 -15.039999 116 116 116 
-2.600000 -2.800000 -15.039999 115 115 115 
-2.542056 -2.791277 -14.993146 116 116 116 
-2.492212 -2.791277 -14.993146 118 118 118 
-2.427245 -2.773994 -14.900309 120 120 120 
-2.348624 -2.740061 -14.718042 119 119 119 
-2.278788 -2.715152 -14.584242 122 122 122 
-2.210210 -2.690691 -14.452852 126 126 126 
-2.149254 -2.674627 -14.366567 125 125 125 
-2.041543 -2.658754 -14.281305 117 117 117 
-1.105263 -1.473684 -7.915789 120 120 120 
-1.078947 -1.473684 -7.915789 123 123 123 
-1.052632 -1.473684 -7.915789 124 124 124 
-1.026316 -1.473684 -7.915789 119 119 119 
-1.000000 -1.473684 -7.915789 114 114 114 
-0.975288 -1.476112 -7.928830 117 117 117 
-1.312821 -2.297436 -12.340512 117 117 117 
-1.271795 -2.297436 -12.340512 118 118 118 
-1.720430 -3.211470 -17.250179 123 123 123 
-1.570909 -3.258182 -17.501091 115 115 115 
-1.507246 -3.246377 -17.437681 113 113 113 
-1.444043 -3.234657 -17.374729 118 118 118 
-1.381295 -3.223022 -17.312229 118 118 118 
-1.291228 -3.143860 -16.887016 113 113 113 
-1.217993 -3.100346 -16.653286 116 116 116 
-0.512195 -1.365854 -7.336585 115 115 115 
-0.733154 -2.415094 -12.972507 116 116 116 
-0.688172 -2.408602 -12.937634 116 116 116 
-0.646900 -2.415094 -12.972507 118 118 118 
-0.605405 -2.421622 -13.007567 112 112 112 
1.062731 -3.306273 -17.759409 114 114 114 
1.121771 -3.306273 -17.759409 116 116 116 
1.185185 -3.318518 -17.825184 118 118 118 
1.244444 -3.318518 -17.825184 119 119 119 
1.303704 -3.318518 -17.825184 114 114 114 
1.362963 -3.318518 -17.825184 112 112 112 
1.427509 -3.330855 -17.891449 113 113 113 
1.486989 -3.330855 -17.891449 110 110 110 
1.552239 -3.343284 -17.958208 113 113 113 
1.875000 -3.500000 -18.799999 108 108 108 
1.937500 -3.500000 -18.799999 111 111 111 
2.000000 -3.500000 -18.799999 112 112 112 
2.062500 -3.500000 -18.799999 112 112 112 
2.125000 -3.500000 -18.799999 109 109 109 
2.187500 -3.500000 -18.799999 108 108 108 
2.250000 -3.500000 -18.799999 111 111 111 
2.312500 -3.500000 -18.799999 112 112 112 
2.375000 -3.500000 -18.799999 111 111 111 
2.437500 -3.500000 -18.799999 109 109 109 
2.500000 -3.500000 -18.799999 110 110 110 
2.562500 -3.500000 -18.799999 112 112 112 
2.625000 -3.500000 -18.799999 112 112 112 
2.687500 -3.500000 -18.799999 107 107 107 
2.750000 -3.500000 -18.799999 108 108 108 
2.812500 -3.500000 -18.799999 108 108 108 
2.875000 -3.500000 -18.799999 107 107 107 
2.937500 -3.500000 -18.799999 108 108 108 
4.250000 -3.500000 -18.799999 70 70 70 
4.312500 -3.500000 -18.799999 71 71 71 
4.210526 -3.368421 -18.093233 70 70 70 
4.270677 -3.368421 -18.093233 70 70 70 
4.500000 -3.500000 -18.799999 68 68 68 
4.562500 -3.500000 -18.799999 66 66 66 
4.625000 -3.500000 -18.799999 65 65 65 
4.687500 -3.500000 -18.799999 61 61 61 
4.750000 -3.500000 -18.799999 58 58 58 
4.812500 -3.500000 -18.799999 57 57 57 
4.875000 -3.500000 -18.799999 56 56 56 
4.937500 -3.500000 -18.799999 56 56 56 
5.000000 -3.500000 -18.799999 55 55 55 
5.062500 -3.500000 -18.799999 56 56 56 
5.125000 -3.500000 -18.799999 56 56 56 
5.187500 -3.500000 -18.799999 56 56 56 
5.250000 -3.500000 -18.799999 58 58 58 
5.312500 -3.500000 -18.799999 58 58 58 
5.375000 -3.500000 -18.799999 54 54 54 
5.437500 -3.500000 -18.799999 48 48 48 
3.176030 -1.677903 -9.012733 68 68 68 
3.200000 -1.674766 -8.995888 67 67 67 
3.200000 -1.659259 -8.912592 64 64 64 
3.217712 -1.653136 -8.879704 63 63 63 
3.302064 -1.681051 -9.029643 59 59 59 
2.808633 -1.289209 -6.924892 56 56 56 
2.848046 -1.296672 -6.964978 55 55 55 
2.879536 -1.300435 -6.985196 54 54 54 
2.911208 -1.304221 -7.005531 55 55 55 
2.934498 -1.304221 -7.005531 55 55 55 
2.953488 -1.302326 -6.995348 55 55 55 
2.976744 -1.302326 -6.995348 58 58 58 
6.260870 -2.597101 -13.950145 50 50 50 
6.217143 -2.560000 -13.750856 57 57 57 
6.262857 -2.560000 -13.750856 68 68 68 
6.308571 -2.560000 -13.750856 60 60 60 
6.354286 -2.560000 -13.750856 54 54 54 
6.400000 -2.560000 -13.750856 56 56 56 
6.501441 -2.582133 -13.869740 65 65 65 
7.258786 -2.862620 -15.376357 62 62 62 
7.309904 -2.862620 -15.376357 53 53 53 
7.245283 -2.817610 -15.134590 52 52 52 
7.250000 -2.800000 -15.039999 55 55 55 
7.300000 -2.800000 -15.039999 58 58 58 
7.350000 -2.800000 -15.039999 62 62 62 
7.400000 -2.800000 -15.039999 69 69 69 
7.450000 -2.800000 -15.039999 66 66 66 
3.926657 -1.263752 -6.788152 45 45 45 
3.949224 -1.263752 -6.788152 44 44 44 
8.431138 -2.682635 -14.409580 44 44 44 
8.479042 -2.682635 -14.409580 46 46 46 
8.501493 -2.674627 -14.366567 45 45 45 
8.523809 -2.666667 -14.323809 46 46 46 
8.571428 -2.666667 -14.323809 47 47 47 
8.619047 -2.666667 -14.323809 45 45 45 
11.375000 -3.500000 -18.799999 43 43 43 
11.437500 -3.500000 -18.799999 38 38 38 
11.500000 -3.500000 -18.799999 36 36 36 
11.003717 -3.330855 -17.891449 36 36 36 
10.941176 -3.294118 -17.694117 38 38 38 
10.959707 -3.282051 -17.629303 39 39 39 
-4.193103 -3.144828 -16.595861 113 113 113 
-4.123711 -3.134021 -16.538832 113 113 113 
-3.209039 -2.576271 -13.595480 113 113 113 
-3.163842 -2.576271 -13.595480 116 116 116 
-3.127479 -2.583569 -13.633994 119 119 119 
-3.082153 -2.583569 -13.633994 117 117 117 
-3.045455 -2.590909 -13.672727 117 117 117 
-3.000000 -2.590909 -13.672727 122 122 122 
-4.062500 -3.562500 -18.799999 119 119 119 
-4.000000 -3.562500 -18.799999 117 117 117 
-3.937500 -3.562500 -18.799999 117 117 117 
-2.767296 -2.867924 -15.134590 116 116 116 
-2.700000 -2.850000 -15.039999 118 118 118 
-2.650000 -2.850000 -15.039999 117 117 117 
-2.600000 -2.850000 -15.039999 114 114 114 
-2.542056 -2.841121 -14.993146 111 111 111 
-2.492212 -2.841121 -14.993146 114 114 114 
-2.427245 -2.823529 -14.900309 116 116 116 
-2.370370 -2.814815 -14.854321 121 121 121 
-2.285714 -2.772037 -14.628571 144 144 144 
-2.230303 -2.763636 -14.584242 154 154 154 
-2.168675 -2.746988 -14.496385 131 131 131 
-2.510949 -3.328467 -17.564962 116 116 116 
-2.417266 -3.280576 -17.312229 117 117 117 
-1.078947 -1.500000 -7.915789 118 118 118 
-1.052632 -1.500000 -7.915789 118 118 118 
-1.026316 -1.500000 -7.915789 117 117 117 
-1.001647 -1.502471 -7.928830 112 112 112 
-0.976898 -1.504951 -7.941914 110 110 110 
-1.312821 -2.338462 -12.340512 118 118 118 
-1.271795 -2.338462 -12.340512 118 118 118 
-1.732852 -3.292419 -17.374729 127 127 127 
-1.629091 -3.316364 -17.501091 120 120 120 
-1.570909 -3.316364 -17.501091 118 118 118 
-1.512727 -3.316364 -17.501091 115 115 115 
-1.454545 -3.316364 -17.501091 115 115 115 
-1.391304 -3.304348 -17.437681 117 117 117 
-1.291228 -3.200000 -16.887016 116 116 116 
-0.534954 -1.386018 -7.314285 121 121 121 
-0.511416 -1.388128 -7.325418 118 118 118 
-0.487062 -1.388128 -7.325418 116 116 116 
-0.819407 -2.458221 -12.972507 113 113 113 
-0.778378 -2.464865 -13.007567 113 113 113 
-0.733154 -2.458221 -12.972507 113 113 113 
-0.690027 -2.458221 -12.972507 112 112 112 
-0.648649 -2.464865 -13.007567 114 114 114 
-0.605405 -2.464865 -13.007567 110 110 110 
0.275430 -1.427230 -7.531768 118 118 118 
0.300000 -1.425000 -7.520000 115 115 115 
0.325000 -1.425000 -7.520000 111 111 111 
1.066667 -3.377778 -17.825184 98 98 98 
1.125926 -3.377778 -17.825184 99 99 99 
1.185185 -3.377778 -17.825184 99 99 99 
1.244444 -3.377778 -17.825184 97 97 97 
1.303704 -3.377778 -17.825184 97 97 97 
