ply
format ascii 1.0
element vertex 1167
property float x
property float y
property float z
property uchar red
property uchar green
property uchar blue
end_header
-2.062500 3.000000 -18.799999 135 135 135 
-2.000000 3.000000 -18.799999 116 116 116 
-1.937500 3.000000 -18.799999 60 60 60 
-1.875000 3.000000 -18.799999 39 39 39 
-1.812500 3.000000 -18.799999 47 47 47 
-1.750000 3.000000 -18.799999 64 64 64 
-1.687500 3.000000 -18.799999 87 87 87 
-1.625000 3.000000 -18.799999 137 137 137 
-1.562500 3.000000 -18.799999 166 166 166 
-1.500000 3.000000 -18.799999 173 173 173 
-1.437500 3.000000 -18.799999 176 176 176 
-1.375000 3.000000 -18.799999 155 155 155 
-1.312500 3.000000 -18.799999 138 138 138 
-1.250000 3.000000 -18.799999 127 127 127 
-1.187500 3.000000 -18.799999 118 118 118 
-1.078652 2.876405 -18.025467 127 127 127 
-1.014925 2.865672 -17.958208 130 130 130 
-0.944649 2.833948 -17.759409 117 117 117 
-0.895522 2.865672 -17.958208 102 102 102 
0.197531 1.185185 -7.427160 149 149 149 
0.221538 1.181538 -7.404307 143 143 143 
0.246533 1.183359 -7.415716 141 141 141 
0.271605 1.185185 -7.427160 139 139 139 
0.296296 1.185185 -7.427160 138 138 138 
0.320988 1.185185 -7.427160 147 147 147 
0.345679 1.185185 -7.427160 151 151 151 
0.370370 1.185185 -7.427160 149 149 149 
0.395062 1.185185 -7.427160 143 143 143 
0.409639 1.156626 -7.248192 128 128 128 
0.433735 1.156626 -7.248192 132 132 132 
0.457831 1.156626 -7.248192 140 140 140 
0.571429 0.914286 -5.729524 46 46 46 
0.579439 0.897196 -5.622430 52 52 52 
0.598131 0.897196 -5.622430 56 56 56 
0.715596 0.880734 -5.519266 55 55 55 
0.719910 0.863892 -5.413723 51 51 51 
0.737908 0.863892 -5.413723 50 50 50 
0.755906 0.863892 -5.413723 55 55 55 
0.767857 0.857143 -5.371428 60 60 60 
0.785714 0.857143 -5.371428 63 63 63 
0.803571 0.857143 -5.371428 52 52 52 
0.821429 0.857143 -5.371428 55 55 55 
0.831858 0.849558 -5.323894 69 69 69 
0.849558 0.849558 -5.323894 86 86 86 
0.867257 0.849558 -5.323894 130 130 130 
0.884956 0.849558 -5.323894 170 170 170 
0.902655 0.849558 -5.323894 162 162 162 
1.083333 1.000000 -6.266666 153 153 153 
1.104167 1.000000 -6.266666 149 149 149 
1.125000 1.000000 -6.266666 150 150 150 
1.145833 1.000000 -6.266666 157 157 157 
1.166667 1.000000 -6.266666 155 155 155 
1.187500 1.000000 -6.266666 150 150 150 
1.208333 1.000000 -6.266666 146 146 146 
1.229167 1.000000 -6.266666 149 149 149 
1.250000 1.000000 -6.266666 160 160 160 
1.270833 1.000000 -6.266666 157 157 157 
1.291667 1.000000 -6.266666 160 160 160 
1.312500 1.000000 -6.266666 173 173 173 
1.333333 1.000000 -6.266666 166 166 166 
1.354167 1.000000 -6.266666 142 142 142 
4.125000 3.000000 -18.799999 133 133 133 
4.187500 3.000000 -18.799999 144 144 144 
4.250000 3.000000 -18.799999 148 148 148 
4.312500 3.000000 -18.799999 148 148 148 
4.375000 3.000000 -18.799999 158 158 158 
4.437500 3.000000 -18.799999 166 166 166 
4.500000 3.000000 -18.799999 158 158 158 
4.562500 3.000000 -18.799999 147 147 147 
4.625000 3.000000 -18.799999 144 144 144 
4.687500 3.000000 -18.799999 148 148 148 
4.750000 3.000000 -18.799999 156 156 156 
4.812500 3.000000 -18.799999 168 168 168 
4.875000 3.000000 -18.799999 143 143 143 
4.937500 3.000000 -18.799999 127 127 127 
5.000000 3.000000 -18.799999 177 177 177 
5.062500 3.000000 -18.799999 190 190 190 
5.125000 3.000000 -18.799999 199 199 199 
5.187500 3.000000 -18.799999 202 202 202 
3.833333 2.000000 -12.533333 199 199 199 
3.875000 2.000000 -12.533333 199 199 199 
3.916667 2.000000 -12.533333 194 194 194 
3.958333 2.000000 -12.533333 187 187 187 
4.000000 2.000000 -12.533333 185 185 185 
4.041667 2.000000 -12.533333 185 185 185 
4.083333 2.000000 -12.533333 184 184 184 
4.125000 2.000000 -12.533333 177 177 177 
4.166667 2.000000 -12.533333 179 179 179 
4.208333 2.000000 -12.533333 188 188 188 
4.250000 2.000000 -12.533333 191 191 191 
4.291667 2.000000 -12.533333 191 191 191 
4.333333 2.000000 -12.533333 194 194 194 
4.375000 2.000000 -12.533333 198 198 198 
4.416667 2.000000 -12.533333 204 204 204 
4.583333 2.000000 -12.533333 201 201 201 
4.625000 2.000000 -12.533333 203 203 203 
4.666667 2.000000 -12.533333 196 196 196 
4.708333 2.000000 -12.533333 180 180 180 
4.750000 2.000000 -12.533333 173 173 173 
3.636364 1.517787 -9.511462 158 158 158 
3.667984 1.517787 -9.511462 149 149 149 
3.706931 1.520792 -9.530296 152 152 152 
4.916667 2.000000 -12.533333 153 153 153 
4.958333 2.000000 -12.533333 155 155 155 
5.000000 2.000000 -12.533333 149 149 149 
3.833663 1.520792 -9.530296 139 139 139 
3.812500 1.500000 -9.400000 139 139 139 
3.843750 1.500000 -9.400000 150 150 150 
3.928713 1.520792 -9.530296 151 151 151 
3.960396 1.520792 -9.530296 144 144 144 
3.992079 1.520792 -9.530296 144 144 144 
3.210111 1.213270 -7.603159 137 137 137 
2.265487 0.849558 -5.323894 136 136 136 
8.562500 3.000000 -18.799999 165 165 165 
8.625000 3.000000 -18.799999 166 166 166 
8.687500 3.000000 -18.799999 164 164 164 
8.750000 3.000000 -18.799999 135 135 135 
8.812500 3.000000 -18.799999 127 127 127 
8.875000 3.000000 -18.799999 126 126 126 
8.937500 3.000000 -18.799999 114 114 114 
9.000000 3.000000 -18.799999 98 98 98 
9.062500 3.000000 -18.799999 90 90 90 
9.125000 3.000000 -18.799999 102 102 102 
9.187500 3.000000 -18.799999 83 83 83 
9.250000 3.000000 -18.799999 68 68 68 
9.312500 3.000000 -18.799999 77 77 77 
9.375000 3.000000 -18.799999 76 76 76 
9.437500 3.000000 -18.799999 79 79 79 
9.500000 3.000000 -18.799999 81 81 81 
9.562500 3.000000 -18.799999 80 80 80 
9.625000 3.000000 -18.799999 77 77 77 
9.687500 3.000000 -18.799999 85 85 85 
9.750000 3.000000 -18.799999 94 94 94 
9.812500 3.000000 -18.799999 90 90 90 
9.875000 3.000000 -18.799999 76 76 76 
9.937500 3.000000 -18.799999 77 77 77 
10.000000 3.000000 -18.799999 86 86 86 
10.062500 3.000000 -18.799999 78 78 78 
10.125000 3.000000 -18.799999 67 67 67 
10.187500 3.000000 -18.799999 59 59 59 
10.250000 3.000000 -18.799999 58 58 58 
10.312500 3.000000 -18.799999 64 64 64 
10.375000 3.000000 -18.799999 63 63 63 
10.437500 3.000000 -18.799999 64 64 64 
10.500000 3.000000 -18.799999 62 62 62 
10.562500 3.000000 -18.799999 68 68 68 
10.625000 3.000000 -18.799999 65 65 65 
10.687500 3.000000 -18.799999 54 54 54 
10.750000 3.000000 -18.799999 54 54 54 
10.812500 3.000000 -18.799999 58 58 58 
10.875000 3.000000 -18.799999 56 56 56 
10.937500 3.000000 -18.799999 59 59 59 
11.000000 3.000000 -18.799999 56 56 56 
11.062500 3.000000 -18.799999 55 55 55 
11.125000 3.000000 -18.799999 48 48 48 
11.187500 3.000000 -18.799999 41 41 41 
11.250000 3.000000 -18.799999 39 39 39 
11.312500 3.000000 -18.799999 40 40 40 
11.375000 3.000000 -18.799999 41 41 41 
11.437500 3.000000 -18.799999 38 38 38 
11.500000 3.000000 -18.799999 37 37 37 
11.562500 3.000000 -18.799999 47 47 47 
11.625000 3.000000 -18.799999 47 47 47 
11.687500 3.000000 -18.799999 42 42 42 
-0.733414 0.453559 -2.902774 192 192 192 
-0.723764 0.453559 -2.902774 193 193 193 
-0.705182 0.447886 -2.866468 195 195 195 
-0.662883 0.426788 -2.731441 191 191 191 
-0.653432 0.426546 -2.729892 187 187 187 
-0.644356 0.426546 -2.729892 188 188 188 
-0.635281 0.426546 -2.729892 183 183 183 
-0.626205 0.426546 -2.729892 176 176 176 
-0.616780 0.426304 -2.728345 181 181 181 
-0.607710 0.426304 -2.728345 180 180 180 
-0.598639 0.426304 -2.728345 176 176 176 
-0.589569 0.426304 -2.728345 180 180 180 
-0.580499 0.426304 -2.728345 185 185 185 
-0.571753 0.426546 -2.729892 181 181 181 
-0.562997 0.426788 -2.731441 177 177 177 
-0.554545 0.427273 -2.734545 177 177 177 
-0.547009 0.428490 -2.742336 177 177 177 
-0.539737 0.429960 -2.751744 174 174 174 
-0.530892 0.430206 -2.753318 169 169 169 
-0.548736 0.452467 -2.895788 164 164 164 
-0.539434 0.452739 -2.897532 164 164 164 
-0.480453 0.426062 -2.726799 156 156 156 
-0.470855 0.425580 -2.723712 150 150 150 
-0.462323 0.426062 -2.726799 146 146 146 
-0.452489 0.425339 -2.722172 146 146 146 
-0.443439 0.425339 -2.722172 142 142 142 
-0.432432 0.423423 -2.709910 137 137 137 
-0.423423 0.423423 -2.709910 132 132 132 
-0.414414 0.423423 -2.709910 129 129 129 
-0.405405 0.423423 -2.709910 127 127 127 
-0.396396 0.423423 -2.709910 129 129 129 
-0.387387 0.423423 -2.709910 135 135 135 
-0.403846 0.451923 -2.892308 141 141 141 
-0.394468 0.452195 -2.894047 141 141 141 
-0.384847 0.452195 -2.894047 115 115 115 
-0.375000 0.451923 -2.892308 110 110 110 
-0.364508 0.450839 -2.885372 94 94 94 
-0.354916 0.450839 -2.885372 102 102 102 
-2.117647 2.764706 -17.694117 215 215 215 
-2.187500 2.937500 -18.799999 193 193 193 
-2.125000 2.937500 -18.799999 116 116 116 
-2.062500 2.937500 -18.799999 123 123 123 
-2.000000 2.937500 -18.799999 127 127 127 
-1.937500 2.937500 -18.799999 73 73 73 
-1.875000 2.937500 -18.799999 42 42 42 
-1.812500 2.937500 -18.799999 53 53 53 
-1.750000 2.937500 -18.799999 71 71 71 
-1.687500 2.937500 -18.799999 104 104 104 
-1.625000 2.937500 -18.799999 158 158 158 
-1.562500 2.937500 -18.799999 179 179 179 
-1.500000 2.937500 -18.799999 185 185 185 
-1.437500 2.937500 -18.799999 187 187 187 
-1.375000 2.937500 -18.799999 165 165 165 
-1.312500 2.937500 -18.799999 150 150 150 
-1.250000 2.937500 -18.799999 131 131 131 
-1.187500 2.937500 -18.799999 111 111 111 
-1.078652 2.816479 -18.025467 108 108 108 
-1.003690 2.774908 -17.759409 106 106 106 
-0.944649 2.774908 -17.759409 95 95 95 
-0.885609 2.774908 -17.759409 76 76 76 
0.197836 1.162287 -7.438640 136 136 136 
0.222222 1.160494 -7.427160 130 130 130 
0.246914 1.160494 -7.427160 123 123 123 
0.271605 1.160494 -7.427160 119 119 119 
0.296296 1.160494 -7.427160 120 120 120 
0.320988 1.160494 -7.427160 129 129 129 
0.345679 1.160494 -7.427160 135 135 135 
0.370370 1.160494 -7.427160 139 139 139 
0.395062 1.160494 -7.427160 140 140 140 
0.409639 1.132530 -7.248192 135 135 135 
0.433735 1.132530 -7.248192 139 139 139 
0.457831 1.132530 -7.248192 147 147 147 
0.571429 0.895238 -5.729524 46 46 46 
0.579439 0.878505 -5.622430 54 54 54 
0.598131 0.878505 -5.622430 54 54 54 
0.697248 0.862385 -5.519266 59 59 59 
0.701912 0.845894 -5.413723 61 61 61 
0.719910 0.845894 -5.413723 50 50 50 
0.737908 0.845894 -5.413723 47 47 47 
0.750000 0.839286 -5.371428 51 51 51 
0.767857 0.839286 -5.371428 61 61 61 
0.785714 0.839286 -5.371428 64 64 64 
0.803571 0.839286 -5.371428 56 56 56 
0.821429 0.839286 -5.371428 53 53 53 
0.831858 0.831858 -5.323894 63 63 63 
0.849558 0.831858 -5.323894 74 74 74 
0.867257 0.831858 -5.323894 105 105 105 
0.884956 0.831858 -5.323894 153 153 153 
0.902655 0.831858 -5.323894 167 167 167 
1.083333 0.979167 -6.266666 166 166 166 
1.104167 0.979167 -6.266666 148 148 148 
1.125000 0.979167 -6.266666 145 145 145 
1.145833 0.979167 -6.266666 154 154 154 
1.166667 0.979167 -6.266666 156 156 156 
1.187500 0.979167 -6.266666 146 146 146 
1.208333 0.979167 -6.266666 138 138 138 
1.229167 0.979167 -6.266666 143 143 143 
1.250000 0.979167 -6.266666 148 148 148 
1.270833 0.979167 -6.266666 141 141 141 
1.291667 0.979167 -6.266666 134 134 134 
1.312500 0.979167 -6.266666 141 141 141 
1.333333 0.979167 -6.266666 157 157 157 
1.340206 0.969072 -6.202062 151 151 151 
1.360825 0.969072 -6.202062 129 129 129 
4.187500 2.937500 -18.799999 135 135 135 
4.250000 2.937500 -18.799999 143 143 143 
4.312500 2.937500 -18.799999 150 150 150 
4.375000 2.937500 -18.799999 152 152 152 
4.437500 2.937500 -18.799999 161 161 161 
4.500000 2.937500 -18.799999 157 157 157 
4.562500 2.937500 -18.799999 131 131 131 
4.625000 2.937500 -18.799999 132 132 132 
4.687500 2.937500 -18.799999 134 134 134 
4.750000 2.937500 -18.799999 136 136 136 
4.812500 2.937500 -18.799999 162 162 162 
4.875000 2.937500 -18.799999 145 145 145 
4.937500 2.937500 -18.799999 127 127 127 
5.000000 2.937500 -18.799999 182 182 182 
5.062500 2.937500 -18.799999 193 193 193 
5.125000 2.937500 -18.799999 202 202 202 
3.791667 1.958333 -12.533333 201 201 201 
3.833333 1.958333 -12.533333 203 203 203 
3.875000 1.958333 -12.533333 201 201 201 
3.916667 1.958333 -12.533333 195 195 195 
3.958333 1.958333 -12.533333 189 189 189 
4.000000 1.958333 -12.533333 184 184 184 
4.041667 1.958333 -12.533333 181 181 181 
4.083333 1.958333 -12.533333 181 181 181 
4.125000 1.958333 -12.533333 180 180 180 
4.166667 1.958333 -12.533333 175 175 175 
4.208333 1.958333 -12.533333 181 181 181 
4.250000 1.958333 -12.533333 189 189 189 
4.291667 1.958333 -12.533333 195 195 195 
4.333333 1.958333 -12.533333 200 200 200 
4.375000 1.958333 -12.533333 203 203 203 
4.708333 1.958333 -12.533333 190 190 190 
3.562500 1.468750 -9.400000 170 170 170 
3.593750 1.468750 -9.400000 155 155 155 
3.667984 1.486166 -9.511462 146 146 146 
3.699605 1.486166 -9.511462 146 146 146 
3.731225 1.486166 -9.511462 150 150 150 
4.857143 1.918367 -12.277551 156 156 156 
4.897959 1.918367 -12.277551 143 143 143 
3.833663 1.489109 -9.530296 126 126 126 
3.812500 1.468750 -9.400000 121 121 121 
3.843750 1.468750 -9.400000 137 137 137 
3.928713 1.489109 -9.530296 155 155 155 
3.960396 1.489109 -9.530296 150 150 150 
3.992079 1.489109 -9.530296 141 141 141 
4.023762 1.489109 -9.530296 134 134 134 
2.265487 0.831858 -5.323894 125 125 125 
8.562500 2.937500 -18.799999 193 193 193 
8.625000 2.937500 -18.799999 190 190 190 
8.687500 2.937500 -18.799999 178 178 178 
8.750000 2.937500 -18.799999 151 151 151 
8.812500 2.937500 -18.799999 134 134 134 
8.875000 2.937500 -18.799999 142 142 142 
8.937500 2.937500 -18.799999 120 120 120 
9.000000 2.937500 -18.799999 100 100 100 
9.062500 2.937500 -18.799999 91 91 91 
9.125000 2.937500 -18.799999 103 103 103 
9.187500 2.937500 -18.799999 103 103 103 
9.250000 2.937500 -18.799999 75 75 75 
9.312500 2.937500 -18.799999 74 74 74 
9.375000 2.937500 -18.799999 78 78 78 
9.437500 2.937500 -18.799999 104 104 104 
9.500000 2.937500 -18.799999 115 115 115 
9.562500 2.937500 -18.799999 95 95 95 
9.625000 2.937500 -18.799999 80 80 80 
9.687500 2.937500 -18.799999 101 101 101 
9.750000 2.937500 -18.799999 126 126 126 
9.812500 2.937500 -18.799999 131 131 131 
9.875000 2.937500 -18.799999 101 101 101 
9.937500 2.937500 -18.799999 88 88 88 
10.000000 2.937500 -18.799999 97 97 97 
10.062500 2.937500 -18.799999 85 85 85 
10.125000 2.937500 -18.799999 83 83 83 
10.187500 2.937500 -18.799999 73 73 73 
10.250000 2.937500 -18.799999 59 59 59 
10.312500 2.937500 -18.799999 58 58 58 
10.375000 2.937500 -18.799999 67 67 67 
10.437500 2.937500 -18.799999 64 64 64 
10.500000 2.937500 -18.799999 64 64 64 
10.562500 2.937500 -18.799999 70 70 70 
10.625000 2.937500 -18.799999 66 66 66 
10.687500 2.937500 -18.799999 54 54 54 
10.750000 2.937500 -18.799999 54 54 54 
10.812500 2.937500 -18.799999 58 58 58 
10.875000 2.937500 -18.799999 58 58 58 
10.937500 2.937500 -18.799999 60 60 60 
11.000000 2.937500 -18.799999 47 47 47 
11.062500 2.937500 -18.799999 56 56 56 
11.125000 2.937500 -18.799999 55 55 55 
11.187500 2.937500 -18.799999 43 43 43 
11.250000 2.937500 -18.799999 41 41 41 
11.312500 2.937500 -18.799999 44 44 44 
11.375000 2.937500 -18.799999 45 45 45 
11.437500 2.937500 -18.799999 42 42 42 
11.500000 2.937500 -18.799999 42 42 42 
11.562500 2.937500 -18.799999 43 43 43 
11.625000 2.937500 -18.799999 49 49 49 
11.687500 2.937500 -18.799999 50 50 50 
-0.733414 0.443908 -2.902774 192 192 192 
-0.723764 0.443908 -2.902774 194 194 194 
-0.705182 0.438356 -2.866468 196 196 196 
-0.695652 0.438356 -2.866468 191 191 191 
-0.653432 0.417470 -2.729892 186 186 186 
-0.644356 0.417470 -2.729892 188 188 188 
-0.635281 0.417470 -2.729892 182 182 182 
-0.625850 0.417234 -2.728345 178 178 178 
-0.616780 0.417234 -2.728345 180 180 180 
-0.607710 0.417234 -2.728345 176 176 176 
-0.598639 0.417234 -2.728345 172 172 172 
-0.589569 0.417234 -2.728345 175 175 175 
-0.580499 0.417234 -2.728345 180 180 180 
-0.571753 0.417470 -2.729892 179 179 179 
-0.562997 0.417707 -2.731441 178 178 178 
-0.554545 0.418182 -2.734545 176 176 176 
-0.549199 0.421053 -2.753318 174 174 174 
-0.567990 0.442840 -2.895788 176 176 176 
-0.558363 0.442840 -2.895788 174 174 174 
-0.549067 0.443107 -2.897532 167 167 167 
-0.539434 0.443107 -2.897532 167 167 167 
-0.480181 0.416761 -2.725255 158 158 158 
-0.470588 0.416290 -2.722172 156 156 156 
-0.462323 0.416997 -2.726799 152 152 152 
-0.456621 0.420091 -2.747032 150 150 150 
-0.443439 0.416290 -2.722172 146 146 146 
-0.432432 0.414414 -2.709910 140 140 140 
-0.423423 0.414414 -2.709910 136 136 136 
-0.414414 0.414414 -2.709910 133 133 133 
-0.405405 0.414414 -2.709910 131 131 131 
-0.396396 0.414414 -2.709910 133 133 133 
-0.387387 0.414414 -2.709910 137 137 137 
-0.403846 0.442308 -2.892308 143 143 143 
-0.394468 0.442574 -2.894047 146 146 146 
-0.385078 0.442840 -2.895788 137 137 137 
-0.375451 0.442840 -2.895788 140 140 140 
-0.364290 0.440983 -2.883643 108 108 108 
-0.354703 0.440983 -2.883643 92 92 92 
-0.345117 0.440983 -2.883643 201 201 201 
-2.187500 2.875000 -18.799999 220 220 220 
-2.125000 2.875000 -18.799999 146 146 146 
-2.062500 2.875000 -18.799999 130 130 130 
-2.000000 2.875000 -18.799999 134 134 134 
-1.937500 2.875000 -18.799999 92 92 92 
-1.875000 2.875000 -18.799999 50 50 50 
-1.812500 2.875000 -18.799999 61 61 61 
-1.750000 2.875000 -18.799999 80 80 80 
-1.687500 2.875000 -18.799999 125 125 125 
-1.625000 2.875000 -18.799999 171 171 171 
-1.562500 2.875000 -18.799999 178 178 178 
-1.500000 2.875000 -18.799999 173 173 173 
-1.437500 2.875000 -18.799999 173 173 173 
-1.375000 2.875000 -18.799999 167 167 167 
-1.312500 2.875000 -18.799999 148 148 148 
-1.250000 2.875000 -18.799999 119 119 119 
-1.187500 2.875000 -18.799999 101 101 101 
-1.082707 2.766917 -18.093233 92 92 92 
-1.007407 2.725926 -17.825184 87 87 87 
-0.944649 2.715867 -17.759409 83 83 83 
0.197836 1.137558 -7.438640 152 152 152 
0.222566 1.137558 -7.438640 145 145 145 
0.246914 1.135803 -7.427160 143 143 143 
0.271605 1.135803 -7.427160 145 145 145 
0.296296 1.135803 -7.427160 147 147 147 
0.320988 1.135803 -7.427160 148 148 148 
0.345679 1.135803 -7.427160 150 150 150 
0.370370 1.135803 -7.427160 156 156 156 
0.395062 1.135803 -7.427160 164 164 164 
0.409639 1.108434 -7.248192 167 167 167 
0.433735 1.108434 -7.248192 180 180 180 
0.457831 1.108434 -7.248192 190 190 190 
0.579439 0.859813 -5.622430 50 50 50 
0.598131 0.859813 -5.622430 55 55 55 
0.616822 0.859813 -5.622430 54 54 54 
0.629921 0.827897 -5.413723 50 50 50 
0.647919 0.827897 -5.413723 51 51 51 
0.665917 0.827897 -5.413723 56 56 56 
0.683914 0.827897 -5.413723 56 56 56 
0.701912 0.827897 -5.413723 56 56 56 
0.719910 0.827897 -5.413723 44 44 44 
0.732143 0.821429 -5.371428 43 43 43 
0.750000 0.821429 -5.371428 52 52 52 
0.767857 0.821429 -5.371428 59 59 59 
0.785714 0.821429 -5.371428 62 62 62 
0.803571 0.821429 -5.371428 60 60 60 
0.821429 0.821429 -5.371428 60 60 60 
0.831858 0.814159 -5.323894 62 62 62 
0.849558 0.814159 -5.323894 63 63 63 
0.867257 0.814159 -5.323894 84 84 84 
0.884956 0.814159 -5.323894 137 137 137 
0.902655 0.814159 -5.323894 172 172 172 
1.083333 0.958333 -6.266666 172 172 172 
1.104167 0.958333 -6.266666 148 148 148 
1.125000 0.958333 -6.266666 143 143 143 
1.145833 0.958333 -6.266666 139 139 139 
1.166667 0.958333 -6.266666 142 142 142 
1.187500 0.958333 -6.266666 144 144 144 
1.208333 0.958333 -6.266666 138 138 138 
1.229167 0.958333 -6.266666 142 142 142 
1.250000 0.958333 -6.266666 143 143 143 
1.270833 0.958333 -6.266666 144 144 144 
1.291667 0.958333 -6.266666 144 144 144 
1.312500 0.958333 -6.266666 147 147 147 
1.319588 0.948454 -6.202062 163 163 163 
1.340206 0.948454 -6.202062 167 167 167 
1.360825 0.948454 -6.202062 147 147 147 
4.187500 2.875000 -18.799999 151 151 151 
4.250000 2.875000 -18.799999 151 151 151 
4.312500 2.875000 -18.799999 167 167 167 
4.375000 2.875000 -18.799999 185 185 185 
4.437500 2.875000 -18.799999 189 189 189 
4.500000 2.875000 -18.799999 170 170 170 
4.562500 2.875000 -18.799999 134 134 134 
4.625000 2.875000 -18.799999 133 133 133 
4.687500 2.875000 -18.799999 127 127 127 
4.750000 2.875000 -18.799999 137 137 137 
4.812500 2.875000 -18.799999 159 159 159 
4.875000 2.875000 -18.799999 136 136 136 
4.937500 2.875000 -18.799999 118 118 118 
5.000000 2.875000 -18.799999 175 175 175 
5.062500 2.875000 -18.799999 181 181 181 
5.125000 2.875000 -18.799999 177 177 177 
3.791667 1.916667 -12.533333 189 189 189 
3.833333 1.916667 -12.533333 191 191 191 
3.875000 1.916667 -12.533333 192 192 192 
3.916667 1.916667 -12.533333 191 191 191 
3.958333 1.916667 -12.533333 188 188 188 
4.000000 1.916667 -12.533333 181 181 181 
4.041667 1.916667 -12.533333 177 177 177 
4.083333 1.916667 -12.533333 173 173 173 
4.125000 1.916667 -12.533333 173 173 173 
4.166667 1.916667 -12.533333 170 170 170 
4.208333 1.916667 -12.533333 169 169 169 
4.250000 1.916667 -12.533333 169 169 169 
4.291667 1.916667 -12.533333 173 173 173 
4.333333 1.916667 -12.533333 180 180 180 
4.375000 1.916667 -12.533333 185 185 185 
3.562500 1.437500 -9.400000 164 164 164 
3.593750 1.437500 -9.400000 153 153 153 
3.667984 1.454545 -9.511462 150 150 150 
3.699605 1.454545 -9.511462 148 148 148 
3.630769 1.415385 -9.255384 148 148 148 
3.661538 1.415385 -9.255384 156 156 156 
3.801980 1.457426 -9.530296 150 150 150 
3.833663 1.457426 -9.530296 132 132 132 
3.812500 1.437500 -9.400000 110 110 110 
3.843750 1.437500 -9.400000 113 113 113 
3.928713 1.457426 -9.530296 134 134 134 
3.960396 1.457426 -9.530296 147 147 147 
7.875000 2.875000 -18.799999 150 150 150 
7.937500 2.875000 -18.799999 152 152 152 
3.220126 1.157233 -7.567295 154 154 154 
2.283186 0.814159 -5.323894 141 141 141 
8.562500 2.875000 -18.799999 177 177 177 
8.625000 2.875000 -18.799999 197 197 197 
8.687500 2.875000 -18.799999 177 177 177 
8.750000 2.875000 -18.799999 149 149 149 
8.812500 2.875000 -18.799999 128 128 128 
8.875000 2.875000 -18.799999 141 141 141 
8.937500 2.875000 -18.799999 137 137 137 
9.000000 2.875000 -18.799999 110 110 110 
9.062500 2.875000 -18.799999 90 90 90 
9.125000 2.875000 -18.799999 86 86 86 
9.187500 2.875000 -18.799999 98 98 98 
9.250000 2.875000 -18.799999 84 84 84 
9.312500 2.875000 -18.799999 87 87 87 
9.375000 2.875000 -18.799999 78 78 78 
9.437500 2.875000 -18.799999 110 110 110 
9.500000 2.875000 -18.799999 129 129 129 
9.562500 2.875000 -18.799999 114 114 114 
9.625000 2.875000 -18.799999 99 99 99 
9.687500 2.875000 -18.799999 103 103 103 
9.750000 2.875000 -18.799999 134 134 134 
9.812500 2.875000 -18.799999 149 149 149 
9.875000 2.875000 -18.799999 113 113 113 
9.937500 2.875000 -18.799999 84 84 84 
10.000000 2.875000 -18.799999 89 89 89 
10.062500 2.875000 -18.799999 90 90 90 
10.125000 2.875000 -18.799999 97 97 97 
10.187500 2.875000 -18.799999 79 79 79 
10.250000 2.875000 -18.799999 65 65 65 
10.312500 2.875000 -18.799999 56 56 56 
10.375000 2.875000 -18.799999 76 76 76 
10.437500 2.875000 -18.799999 79 79 79 
10.500000 2.875000 -18.799999 67 67 67 
10.562500 2.875000 -18.799999 73 73 73 
10.625000 2.875000 -18.799999 66 66 66 
10.687500 2.875000 -18.799999 53 53 53 
10.750000 2.875000 -18.799999 54 54 54 
10.812500 2.875000 -18.799999 59 59 59 
10.875000 2.875000 -18.799999 63 63 63 
10.937500 2.875000 -18.799999 55 55 55 
11.000000 2.875000 -18.799999 38 38 38 
11.062500 2.875000 -18.799999 49 49 49 
11.125000 2.875000 -18.799999 53 53 53 
11.187500 2.875000 -18.799999 45 45 45 
11.250000 2.875000 -18.799999 45 45 45 
11.312500 2.875000 -18.799999 45 45 45 
11.375000 2.875000 -18.799999 44 44 44 
11.437500 2.875000 -18.799999 42 42 42 
11.500000 2.875000 -18.799999 39 39 39 
11.562500 2.875000 -18.799999 38 38 38 
11.625000 2.875000 -18.799999 42 42 42 
11.687500 2.875000 -18.799999 52 52 52 
-0.822177 0.486815 -3.254091 191 191 191 
-0.723764 0.434258 -2.902774 191 191 191 
-0.801083 0.487145 -3.256292 195 195 195 
-0.790792 0.487475 -3.258497 190 190 190 
-0.653432 0.408395 -2.729892 181 181 181 
-0.644356 0.408395 -2.729892 182 182 182 
-0.634921 0.408163 -2.728345 179 179 179 
-0.625850 0.408163 -2.728345 180 180 180 
-0.568332 0.433474 -2.897532 177 177 177 
-0.558363 0.433213 -2.895788 179 179 179 
-0.549067 0.433474 -2.897532 176 176 176 
-0.479638 0.407240 -2.722172 158 158 158 
-0.470588 0.407240 -2.722172 156 156 156 
-0.465753 0.410959 -2.747032 151 151 151 
-0.456621 0.410959 -2.747032 149 149 149 
-0.447489 0.410959 -2.747032 145 145 145 
-0.434389 0.407240 -2.722172 143 143 143 
-0.423423 0.405405 -2.709910 143 143 143 
-0.414414 0.405405 -2.709910 140 140 140 
-0.405405 0.405405 -2.709910 138 138 138 
-0.396396 0.405405 -2.709910 138 138 138 
-0.387387 0.405405 -2.709910 141 141 141 
-0.404089 0.432952 -2.894047 146 146 146 
-0.394705 0.433213 -2.895788 149 149 149 
-0.385310 0.433474 -2.897532 149 149 149 
-0.375451 0.433213 -2.895788 152 152 152 
-0.364508 0.431655 -2.885372 119 119 119 
-0.354703 0.431396 -2.883643 93 93 93 
-0.345117 0.431396 -2.883643 178 178 178 
-2.187500 2.812500 -18.799999 235 235 235 
-2.125000 2.812500 -18.799999 167 167 167 
-2.062500 2.812500 -18.799999 127 127 127 
-2.000000 2.812500 -18.799999 135 135 135 
-1.937500 2.812500 -18.799999 110 110 110 
-1.875000 2.812500 -18.799999 63 63 63 
-1.812500 2.812500 -18.799999 67 67 67 
-1.750000 2.812500 -18.799999 92 92 92 
-1.687500 2.812500 -18.799999 142 142 142 
-1.625000 2.812500 -18.799999 181 181 181 
-1.562500 2.812500 -18.799999 185 185 185 
-1.500000 2.812500 -18.799999 167 167 167 
-1.437500 2.812500 -18.799999 155 155 155 
-1.375000 2.812500 -18.799999 135 135 135 
-1.312500 2.812500 -18.799999 111 111 111 
-1.250000 2.812500 -18.799999 93 93 93 
-1.187500 2.812500 -18.799999 85 85 85 
-1.125000 2.812500 -18.799999 82 82 82 
-1.022556 2.706767 -18.093233 77 77 77 
-1.000000 2.812500 -18.799999 78 78 78 
0.197836 1.112828 -7.438640 153 153 153 
0.222566 1.112828 -7.438640 149 149 149 
0.246914 1.111111 -7.427160 152 152 152 
0.271605 1.111111 -7.427160 165 165 165 
0.296296 1.111111 -7.427160 179 179 179 
0.320988 1.111111 -7.427160 183 183 183 
0.345679 1.111111 -7.427160 182 182 182 
0.370370 1.111111 -7.427160 179 179 179 
0.395062 1.111111 -7.427160 178 178 178 
0.419753 1.111111 -7.427160 177 177 177 
0.433735 1.084337 -7.248192 189 189 189 
0.579439 0.841121 -5.622430 44 44 44 
0.575928 0.809899 -5.413723 51 51 51 
0.593926 0.809899 -5.413723 54 54 54 
0.611924 0.809899 -5.413723 58 58 58 
0.625000 0.803571 -5.371428 55 55 55 
0.642857 0.803571 -5.371428 57 57 57 
0.660714 0.803571 -5.371428 56 56 56 
0.678571 0.803571 -5.371428 51 51 51 
0.696429 0.803571 -5.371428 48 48 48 
0.714286 0.803571 -5.371428 41 41 41 
0.732143 0.803571 -5.371428 42 42 42 
0.750000 0.803571 -5.371428 50 50 50 
0.767857 0.803571 -5.371428 51 51 51 
0.785714 0.803571 -5.371428 56 56 56 
0.803571 0.803571 -5.371428 57 57 57 
0.821429 0.803571 -5.371428 59 59 59 
0.831858 0.796460 -5.323894 63 63 63 
0.849558 0.796460 -5.323894 59 59 59 
0.867257 0.796460 -5.323894 73 73 73 
0.884956 0.796460 -5.323894 121 121 121 
0.902655 0.796460 -5.323894 166 166 166 
1.083333 0.937500 -6.266666 175 175 175 
1.104167 0.937500 -6.266666 162 162 162 
1.125000 0.937500 -6.266666 146 146 146 
1.145833 0.937500 -6.266666 120 120 120 
1.166667 0.937500 -6.266666 126 126 126 
1.187500 0.937500 -6.266666 155 155 155 
3.625000 2.812500 -18.799999 145 145 145 
3.687500 2.812500 -18.799999 140 140 140 
1.250000 0.937500 -6.266666 149 149 149 
1.270833 0.937500 -6.266666 148 148 148 
1.291667 0.937500 -6.266666 153 153 153 
1.312500 0.937500 -6.266666 163 163 163 
1.319588 0.927835 -6.202062 168 168 168 
1.340206 0.927835 -6.202062 173 173 173 
1.360825 0.927835 -6.202062 167 167 167 
4.187500 2.812500 -18.799999 162 162 162 
4.250000 2.812500 -18.799999 147 147 147 
4.312500 2.812500 -18.799999 166 166 166 
4.375000 2.812500 -18.799999 193 193 193 
4.437500 2.812500 -18.799999 186 186 186 
4.500000 2.812500 -18.799999 165 165 165 
4.562500 2.812500 -18.799999 143 143 143 
4.625000 2.812500 -18.799999 143 143 143 
4.687500 2.812500 -18.799999 132 132 132 
4.750000 2.812500 -18.799999 143 143 143 
4.812500 2.812500 -18.799999 146 146 146 
4.875000 2.812500 -18.799999 121 121 121 
4.937500 2.812500 -18.799999 109 109 109 
5.000000 2.812500 -18.799999 166 166 166 
5.062500 2.812500 -18.799999 183 183 183 
5.125000 2.812500 -18.799999 168 168 168 
3.791667 1.875000 -12.533333 194 194 194 
3.833333 1.875000 -12.533333 190 190 190 
3.875000 1.875000 -12.533333 188 188 188 
3.916667 1.875000 -12.533333 186 186 186 
3.958333 1.875000 -12.533333 187 187 187 
4.000000 1.875000 -12.533333 180 180 180 
4.041667 1.875000 -12.533333 167 167 167 
4.083333 1.875000 -12.533333 132 132 132 
4.125000 1.875000 -12.533333 115 115 115 
4.166667 1.875000 -12.533333 114 114 114 
4.208333 1.875000 -12.533333 116 116 116 
4.250000 1.875000 -12.533333 116 116 116 
4.291667 1.875000 -12.533333 116 116 116 
4.333333 1.875000 -12.533333 121 121 121 
4.375000 1.875000 -12.533333 127 127 127 
3.562500 1.406250 -9.400000 163 163 163 
3.593750 1.406250 -9.400000 145 145 145 
3.667984 1.422925 -9.511462 151 151 151 
3.699605 1.422925 -9.511462 157 157 157 
3.630769 1.384615 -9.255384 152 152 152 
3.661538 1.384615 -9.255384 164 164 164 
3.692308 1.384615 -9.255384 166 166 166 
3.833663 1.425743 -9.530296 154 154 154 
3.897030 1.425743 -9.530296 119 119 119 
3.928713 1.425743 -9.530296 117 117 117 
3.960396 1.425743 -9.530296 122 122 122 
7.875000 2.812500 -18.799999 140 140 140 
7.937500 2.812500 -18.799999 153 153 153 
8.000000 2.812500 -18.799999 155 155 155 
3.225000 1.125000 -7.520000 150 150 150 
3.250000 1.125000 -7.520000 131 131 131 
8.562500 2.812500 -18.799999 134 134 134 
8.625000 2.812500 -18.799999 175 175 175 
8.687500 2.812500 -18.799999 168 168 168 
8.750000 2.812500 -18.799999 147 147 147 
8.812500 2.812500 -18.799999 127 127 127 
8.875000 2.812500 -18.799999 133 133 133 
8.937500 2.812500 -18.799999 140 140 140 
9.000000 2.812500 -18.799999 120 120 120 
9.062500 2.812500 -18.799999 109 109 109 
9.125000 2.812500 -18.799999 88 88 88 
9.187500 2.812500 -18.799999 86 86 86 
9.250000 2.812500 -18.799999 93 93 93 
9.312500 2.812500 -18.799999 93 93 93 
9.375000 2.812500 -18.799999 81 81 81 
9.437500 2.812500 -18.799999 99 99 99 
9.500000 2.812500 -18.799999 123 123 123 
9.562500 2.812500 -18.799999 122 122 122 
9.625000 2.812500 -18.799999 126 126 126 
9.687500 2.812500 -18.799999 103 103 103 
9.750000 2.812500 -18.799999 121 121 121 
9.812500 2.812500 -18.799999 153 153 153 
9.875000 2.812500 -18.799999 118 118 118 
9.937500 2.812500 -18.799999 93 93 93 
10.000000 2.812500 -18.799999 88 88 88 
10.062500 2.812500 -18.799999 91 91 91 
10.125000 2.812500 -18.799999 107 107 107 
10.187500 2.812500 -18.799999 89 89 89 
10.250000 2.812500 -18.799999 77 77 77 
10.312500 2.812500 -18.799999 64 64 64 
10.375000 2.812500 -18.799999 73 73 73 
10.437500 2.812500 -18.799999 81 81 81 
10.500000 2.812500 -18.799999 68 68 68 
10.562500 2.812500 -18.799999 70 70 70 
10.625000 2.812500 -18.799999 64 64 64 
10.687500 2.812500 -18.799999 50 50 50 
10.750000 2.812500 -18.799999 53 53 53 
10.812500 2.812500 -18.799999 61 61 61 
10.875000 2.812500 -18.799999 65 65 65 
10.937500 2.812500 -18.799999 55 55 55 
11.000000 2.812500 -18.799999 42 42 42 
11.062500 2.812500 -18.799999 46 46 46 
11.125000 2.812500 -18.799999 51 51 51 
11.187500 2.812500 -18.799999 42 42 42 
11.250000 2.812500 -18.799999 36 36 36 
11.312500 2.812500 -18.799999 40 40 40 
11.375000 2.812500 -18.799999 45 45 45 
11.437500 2.812500 -18.799999 41 41 41 
11.500000 2.812500 -18.799999 38 38 38 
11.562500 2.812500 -18.799999 36 36 36 
11.625000 2.812500 -18.799999 37 37 37 
11.687500 2.812500 -18.799999 49 49 49 
-0.826087 0.478261 -3.269565 193 193 193 
-0.811359 0.475997 -3.254091 191 191 191 
-0.801083 0.476319 -3.256292 194 194 194 
-0.790257 0.476319 -3.256292 192 192 192 
-0.779432 0.476319 -3.256292 182 182 182 
-0.644356 0.399319 -2.729892 179 179 179 
-0.568332 0.423841 -2.897532 178 178 178 
-0.558363 0.423586 -2.895788 179 179 179 
-0.548736 0.423586 -2.895788 177 177 177 
-0.539110 0.423586 -2.895788 175 175 175 
-0.519231 0.423077 -2.892308 165 165 165 
-0.479638 0.398190 -2.722172 159 159 159 
-0.470588 0.398190 -2.722172 155 155 155 
-0.465753 0.401826 -2.747032 148 148 148 
-0.456621 0.401826 -2.747032 147 147 147 
-0.447489 0.401826 -2.747032 146 146 146 
-0.434389 0.398190 -2.722172 146 146 146 
-0.423423 0.396396 -2.709910 146 146 146 
-0.414414 0.396396 -2.709910 143 143 143 
-0.405405 0.396396 -2.709910 142 142 142 
-0.396396 0.396396 -2.709910 142 142 142 
-0.387387 0.396396 -2.709910 144 144 144 
-0.404089 0.423331 -2.894047 149 149 149 
-0.394943 0.423841 -2.897532 150 150 150 
-0.386240 0.424864 -2.904526 153 153 153 
-0.375000 0.423077 -2.892308 168 168 168 
-0.365385 0.423077 -2.892308 137 137 137 
-0.354279 0.421305 -2.880191 95 95 95 
-0.345117 0.421809 -2.883643 156 156 156 
-2.187500 2.750000 -18.799999 238 238 238 
-2.125000 2.750000 -18.799999 179 179 179 
-2.062500 2.750000 -18.799999 119 119 119 
-2.000000 2.750000 -18.799999 137 137 137 
-1.937500 2.750000 -18.799999 127 127 127 
-1.875000 2.750000 -18.799999 80 80 80 
-1.812500 2.750000 -18.799999 70 70 70 
-1.750000 2.750000 -18.799999 101 101 101 
-1.687500 2.750000 -18.799999 149 149 149 
-1.625000 2.750000 -18.799999 184 184 184 
-1.562500 2.750000 -18.799999 192 192 192 
-1.500000 2.750000 -18.799999 159 159 159 
-1.437500 2.750000 -18.799999 118 118 118 
-1.375000 2.750000 -18.799999 99 99 99 
-1.312500 2.750000 -18.799999 94 94 94 
-1.250000 2.750000 -18.799999 85 85 85 
-1.187500 2.750000 -18.799999 81 81 81 
-1.125000 2.750000 -18.799999 81 81 81 
-1.062500 2.750000 -18.799999 73 73 73 
0.197836 1.088099 -7.438640 146 146 146 
0.222222 1.086420 -7.427160 143 143 143 
0.246914 1.086420 -7.427160 145 145 145 
0.271605 1.086420 -7.427160 153 153 153 
0.296296 1.086420 -7.427160 168 168 168 
0.320988 1.086420 -7.427160 183 183 183 
0.345679 1.086420 -7.427160 187 187 187 
0.370370 1.086420 -7.427160 180 180 180 
0.539932 0.791901 -5.413723 54 54 54 
0.557930 0.791901 -5.413723 48 48 48 
0.571429 0.785714 -5.371428 47 47 47 
0.589286 0.785714 -5.371428 49 49 49 
0.607143 0.785714 -5.371428 53 53 53 
0.625000 0.785714 -5.371428 56 56 56 
0.642857 0.785714 -5.371428 60 60 60 
0.660714 0.785714 -5.371428 55 55 55 
0.678571 0.785714 -5.371428 51 51 51 
0.696429 0.785714 -5.371428 49 49 49 
0.714286 0.785714 -5.371428 45 45 45 
0.732143 0.785714 -5.371428 46 46 46 
0.750000 0.785714 -5.371428 53 53 53 
0.767857 0.785714 -5.371428 47 47 47 
0.785714 0.785714 -5.371428 50 50 50 
0.803571 0.785714 -5.371428 54 54 54 
0.821429 0.785714 -5.371428 51 51 51 
0.831858 0.778761 -5.323894 56 56 56 
0.849558 0.778761 -5.323894 61 61 61 
0.867257 0.778761 -5.323894 71 71 71 
0.884956 0.778761 -5.323894 106 106 106 
0.902655 0.778761 -5.323894 154 154 154 
1.083333 0.916667 -6.266666 171 171 171 
1.104167 0.916667 -6.266666 169 169 169 
1.125000 0.916667 -6.266666 158 158 158 
1.145833 0.916667 -6.266666 128 128 128 
1.166667 0.916667 -6.266666 132 132 132 
3.562500 2.750000 -18.799999 163 163 163 
3.625000 2.750000 -18.799999 144 144 144 
3.687500 2.750000 -18.799999 130 130 130 
3.750000 2.750000 -18.799999 148 148 148 
3.812500 2.750000 -18.799999 150 150 150 
1.291667 0.916667 -6.266666 162 162 162 
1.312500 0.916667 -6.266666 164 164 164 
1.319588 0.907216 -6.202062 168 168 168 
1.340206 0.907216 -6.202062 171 171 171 
1.360825 0.907216 -6.202062 166 166 166 
4.187500 2.750000 -18.799999 165 165 165 
4.250000 2.750000 -18.799999 153 153 153 
4.312500 2.750000 -18.799999 164 164 164 
4.375000 2.750000 -18.799999 180 180 180 
4.437500 2.750000 -18.799999 167 167 167 
4.500000 2.750000 -18.799999 162 162 162 
4.562500 2.750000 -18.799999 152 152 152 
4.625000 2.750000 -18.799999 148 148 148 
4.687500 2.750000 -18.799999 139 139 139 
4.750000 2.750000 -18.799999 138 138 138 
4.812500 2.750000 -18.799999 137 137 137 
4.875000 2.750000 -18.799999 121 121 121 
4.937500 2.750000 -18.799999 111 111 111 
5.000000 2.750000 -18.799999 157 157 157 
5.062500 2.750000 -18.799999 196 196 196 
5.125000 2.750000 -18.799999 189 189 189 
3.791667 1.833333 -12.533333 197 197 197 
3.833333 1.833333 -12.533333 188 188 188 
3.875000 1.833333 -12.533333 184 184 184 
3.916667 1.833333 -12.533333 186 186 186 
3.958333 1.833333 -12.533333 187 187 187 
4.000000 1.833333 -12.533333 183 183 183 
4.041667 1.833333 -12.533333 163 163 163 
4.083333 1.833333 -12.533333 97 97 97 
4.125000 1.833333 -12.533333 58 58 58 
4.166667 1.833333 -12.533333 55 55 55 
4.208333 1.833333 -12.533333 57 57 57 
4.250000 1.833333 -12.533333 58 58 58 
4.291667 1.833333 -12.533333 57 57 57 
4.333333 1.833333 -12.533333 57 57 57 
3.531250 1.375000 -9.400000 203 203 203 
3.562500 1.375000 -9.400000 191 191 191 
3.593750 1.375000 -9.400000 167 167 167 
3.667984 1.391304 -9.511462 170 170 170 
3.699605 1.391304 -9.511462 185 185 185 
3.630769 1.353846 -9.255384 189 189 189 
3.661538 1.353846 -9.255384 194 194 194 
3.692308 1.353846 -9.255384 198 198 198 
7.750000 2.750000 -18.799999 124 124 124 
7.812500 2.750000 -18.799999 120 120 120 
7.875000 2.750000 -18.799999 125 125 125 
7.937500 2.750000 -18.799999 126 126 126 
8.000000 2.750000 -18.799999 128 128 128 
3.225000 1.100000 -7.520000 133 133 133 
3.250000 1.100000 -7.520000 133 133 133 
3.275000 1.100000 -7.520000 128 128 128 
8.562500 2.750000 -18.799999 97 97 97 
8.625000 2.750000 -18.799999 112 112 112 
8.687500 2.750000 -18.799999 123 123 123 
8.750000 2.750000 -18.799999 121 121 121 
8.812500 2.750000 -18.799999 109 109 109 
8.875000 2.750000 -18.799999 109 109 109 
8.937500 2.750000 -18.799999 122 122 122 
9.000000 2.750000 -18.799999 108 108 108 
9.062500 2.750000 -18.799999 119 119 119 
9.125000 2.750000 -18.799999 108 108 108 
9.187500 2.750000 -18.799999 89 89 89 
9.250000 2.750000 -18.799999 92 92 92 
9.312500 2.750000 -18.799999 83 83 83 
9.375000 2.750000 -18.799999 94 94 94 
9.437500 2.750000 -18.799999 95 95 95 
9.500000 2.750000 -18.799999 108 108 108 
9.562500 2.750000 -18.799999 121 121 121 
9.625000 2.750000 -18.799999 138 138 138 
9.687500 2.750000 -18.799999 117 117 117 
9.750000 2.750000 -18.799999 107 107 107 
9.812500 2.750000 -18.799999 140 140 140 
9.875000 2.750000 -18.799999 120 120 120 
9.937500 2.750000 -18.799999 105 105 105 
10.000000 2.750000 -18.799999 102 102 102 
10.062500 2.750000 -18.799999 95 95 95 
10.125000 2.750000 -18.799999 122 122 122 
10.187500 2.750000 -18.799999 122 122 122 
10.250000 2.750000 -18.799999 88 88 88 
10.312500 2.750000 -18.799999 66 66 66 
10.375000 2.750000 -18.799999 73 73 73 
10.437500 2.750000 -18.799999 71 71 71 
10.500000 2.750000 -18.799999 69 69 69 
10.562500 2.750000 -18.799999 66 66 66 
10.625000 2.750000 -18.799999 65 65 65 
10.687500 2.750000 -18.799999 54 54 54 
10.750000 2.750000 -18.799999 53 53 53 
10.812500 2.750000 -18.799999 57 57 57 
10.875000 2.750000 -18.799999 63 63 63 
10.937500 2.750000 -18.799999 57 57 57 
11.000000 2.750000 -18.799999 49 49 49 
11.062500 2.750000 -18.799999 49 49 49 
11.125000 2.750000 -18.799999 49 49 49 
11.187500 2.750000 -18.799999 47 47 47 
11.250000 2.750000 -18.799999 39 39 39 
11.312500 2.750000 -18.799999 33 33 33 
11.375000 2.750000 -18.799999 38 38 38 
11.437500 2.750000 -18.799999 41 41 41 
11.500000 2.750000 -18.799999 40 40 40 
11.562500 2.750000 -18.799999 40 40 40 
11.625000 2.750000 -18.799999 42 42 42 
11.687500 2.750000 -18.799999 45 45 45 
-0.826087 0.467391 -3.269565 192 192 192 
-0.811359 0.465179 -3.254091 190 190 190 
-0.800541 0.465179 -3.254091 191 191 191 
-0.790257 0.465494 -3.256292 190 190 190 
-0.779432 0.465494 -3.256292 184 184 184 
-0.768606 0.465494 -3.256292 182 182 182 
-0.568332 0.414208 -2.897532 179 179 179 
-0.558363 0.413959 -2.895788 179 179 179 
-0.548736 0.413959 -2.895788 175 175 175 
-0.539110 0.413959 -2.895788 174 174 174 
-0.529164 0.413710 -2.894047 170 170 170 
-0.519231 0.413462 -2.892308 165 165 165 
-0.479638 0.389140 -2.722172 161 161 161 
-0.470588 0.389140 -2.722172 156 156 156 
-0.465753 0.392694 -2.747032 149 149 149 
-0.456621 0.392694 -2.747032 148 148 148 
-0.447489 0.392694 -2.747032 145 145 145 
-0.434389 0.389140 -2.722172 144 144 144 
-0.425339 0.389140 -2.722172 144 144 144 
-0.414414 0.387387 -2.709910 143 143 143 
-0.405405 0.387387 -2.709910 143 143 143 
-0.396396 0.387387 -2.709910 142 142 142 
-0.387387 0.387387 -2.709910 145 145 145 
-0.404089 0.413710 -2.894047 149 149 149 
-0.394943 0.414208 -2.897532 150 150 150 
-0.385310 0.414208 -2.897532 154 154 154 
-0.375000 0.413462 -2.892308 157 157 157 
-0.365385 0.413462 -2.892308 124 124 124 
-0.354279 0.411730 -2.880191 96 96 96 
-0.344704 0.411730 -2.880191 139 139 139 
-2.187500 2.687500 -18.799999 228 228 228 
-2.125000 2.687500 -18.799999 187 187 187 
-2.062500 2.687500 -18.799999 114 114 114 
-2.000000 2.687500 -18.799999 137 137 137 
-1.937500 2.687500 -18.799999 137 137 137 
-1.875000 2.687500 -18.799999 98 98 98 
-1.812500 2.687500 -18.799999 70 70 70 
-1.750000 2.687500 -18.799999 96 96 96 
-1.687500 2.687500 -18.799999 144 144 144 
-1.625000 2.687500 -18.799999 177 177 177 
-1.562500 2.687500 -18.799999 170 170 170 
-1.500000 2.687500 -18.799999 120 120 120 
-1.437500 2.687500 -18.799999 88 88 88 
-1.375000 2.687500 -18.799999 84 84 84 
-1.312500 2.687500 -18.799999 83 83 83 
-1.250000 2.687500 -18.799999 75 75 75 
-1.187500 2.687500 -18.799999 79 79 79 
-1.125000 2.687500 -18.799999 73 73 73 
-1.062500 2.687500 -18.799999 59 59 59 
0.197531 1.061728 -7.427160 152 152 152 
0.222222 1.061728 -7.427160 146 146 146 
0.246914 1.061728 -7.427160 145 145 145 
0.271605 1.061728 -7.427160 144 144 144 
0.296296 1.061728 -7.427160 147 147 147 
0.320988 1.061728 -7.427160 162 162 162 
0.521935 0.773903 -5.413723 57 57 57 
0.535714 0.767857 -5.371428 54 54 54 
0.553571 0.767857 -5.371428 49 49 49 
0.571429 0.767857 -5.371428 47 47 47 
0.589286 0.767857 -5.371428 44 44 44 
0.607143 0.767857 -5.371428 48 48 48 
0.625000 0.767857 -5.371428 54 54 54 
0.642857 0.767857 -5.371428 57 57 57 
0.660714 0.767857 -5.371428 56 56 56 
0.678571 0.767857 -5.371428 55 55 55 
0.696429 0.767857 -5.371428 50 50 50 
0.714286 0.767857 -5.371428 43 43 43 
0.732143 0.767857 -5.371428 47 47 47 
0.750000 0.767857 -5.371428 55 55 55 
0.767857 0.767857 -5.371428 52 52 52 
0.785714 0.767857 -5.371428 52 52 52 
0.803571 0.767857 -5.371428 55 55 55 
0.821429 0.767857 -5.371428 52 52 52 
0.831858 0.761062 -5.323894 53 53 53 
0.849558 0.761062 -5.323894 60 60 60 
0.867257 0.761062 -5.323894 72 72 72 
0.884956 0.761062 -5.323894 96 96 96 
0.902655 0.761062 -5.323894 140 140 140 
1.083333 0.895833 -6.266666 165 165 165 
1.104167 0.895833 -6.266666 163 163 163 
3.375000 2.687500 -18.799999 157 157 157 
3.437500 2.687500 -18.799999 132 132 132 
3.500000 2.687500 -18.799999 135 135 135 
3.562500 2.687500 -18.799999 163 163 163 
3.625000 2.687500 -18.799999 143 143 143 
3.687500 2.687500 -18.799999 121 121 121 
3.750000 2.687500 -18.799999 128 128 128 
3.812500 2.687500 -18.799999 152 152 152 
3.875000 2.687500 -18.799999 170 170 170 
3.937500 2.687500 -18.799999 172 172 172 
1.333333 0.895833 -6.266666 169 169 169 
1.340206 0.886598 -6.202062 163 163 163 
4.125000 2.687500 -18.799999 159 159 159 
4.187500 2.687500 -18.799999 161 161 161 
4.250000 2.687500 -18.799999 162 162 162 
4.312500 2.687500 -18.799999 161 161 161 
4.375000 2.687500 -18.799999 157 157 157 
4.437500 2.687500 -18.799999 155 155 155 
4.500000 2.687500 -18.799999 170 170 170 
4.562500 2.687500 -18.799999 164 164 164 
4.625000 2.687500 -18.799999 143 143 143 
4.687500 2.687500 -18.799999 139 139 139 
4.750000 2.687500 -18.799999 140 140 140 
4.812500 2.687500 -18.799999 159 159 159 
4.875000 2.687500 -18.799999 151 151 151 
4.937500 2.687500 -18.799999 124 124 124 
5.000000 2.687500 -18.799999 147 147 147 
5.062500 2.687500 -18.799999 191 191 191 
5.125000 2.687500 -18.799999 174 174 174 
3.791667 1.791667 -12.533333 202 202 202 
3.833333 1.791667 -12.533333 192 192 192 
3.875000 1.791667 -12.533333 184 184 184 
3.916667 1.791667 -12.533333 186 186 186 
3.958333 1.791667 -12.533333 180 180 180 
4.000000 1.791667 -12.533333 172 172 172 
4.041667 1.791667 -12.533333 156 156 156 
4.083333 1.791667 -12.533333 93 93 93 
4.125000 1.791667 -12.533333 48 48 48 
4.166667 1.791667 -12.533333 43 43 43 
4.208333 1.791667 -12.533333 42 42 42 
4.250000 1.791667 -12.533333 42 42 42 
4.291667 1.791667 -12.533333 41 41 41 
3.531250 1.343750 -9.400000 220 220 220 
3.562500 1.343750 -9.400000 220 220 220 
3.593750 1.343750 -9.400000 195 195 195 
3.625000 1.343750 -9.400000 185 185 185 
3.600000 1.323077 -9.255384 206 206 206 
3.630769 1.323077 -9.255384 218 218 218 
3.661538 1.323077 -9.255384 220 220 220 
3.692308 1.323077 -9.255384 215 215 215 
7.812500 2.687500 -18.799999 128 128 128 
7.875000 2.687500 -18.799999 150 150 150 
7.937500 2.687500 -18.799999 142 142 142 
8.000000 2.687500 -18.799999 128 128 128 
3.225000 1.075000 -7.520000 127 127 127 
3.250000 1.075000 -7.520000 132 132 132 
3.275000 1.075000 -7.520000 132 132 132 
3.300000 1.075000 -7.520000 115 115 115 
8.562500 2.687500 -18.799999 67 67 67 
8.625000 2.687500 -18.799999 71 71 71 
8.687500 2.687500 -18.799999 75 75 75 
8.750000 2.687500 -18.799999 74 74 74 
8.812500 2.687500 -18.799999 75 75 75 
8.875000 2.687500 -18.799999 79 79 79 
8.937500 2.687500 -18.799999 81 81 81 
9.000000 2.687500 -18.799999 72 72 72 
9.062500 2.687500 -18.799999 79 79 79 
9.125000 2.687500 -18.799999 80 80 80 
9.187500 2.687500 -18.799999 78 78 78 
9.250000 2.687500 -18.799999 78 78 78 
9.312500 2.687500 -18.799999 68 68 68 
9.375000 2.687500 -18.799999 77 77 77 
9.437500 2.687500 -18.799999 76 76 76 
9.500000 2.687500 -18.799999 86 86 86 
9.562500 2.687500 -18.799999 110 110 110 
9.625000 2.687500 -18.799999 130 130 130 
9.687500 2.687500 -18.799999 122 122 122 
9.750000 2.687500 -18.799999 103 103 103 
9.812500 2.687500 -18.799999 107 107 107 
9.875000 2.687500 -18.799999 108 108 108 
9.937500 2.687500 -18.799999 107 107 107 
10.000000 2.687500 -18.799999 106 106 106 
10.062500 2.687500 -18.799999 94 94 94 
10.125000 2.687500 -18.799999 107 107 107 
10.187500 2.687500 -18.799999 130 130 130 
10.250000 2.687500 -18.799999 103 103 103 
10.312500 2.687500 -18.799999 65 65 65 
10.375000 2.687500 -18.799999 71 71 71 
10.437500 2.687500 -18.799999 71 71 71 
10.500000 2.687500 -18.799999 63 63 63 
10.562500 2.687500 -18.799999 65 65 65 
10.625000 2.687500 -18.799999 65 65 65 
10.687500 2.687500 -18.799999 65 65 65 
10.750000 2.687500 -18.799999 58 58 58 
10.812500 2.687500 -18.799999 55 55 55 
10.875000 2.687500 -18.799999 60 60 60 
10.937500 2.687500 -18.799999 56 56 56 
11.000000 2.687500 -18.799999 47 47 47 
11.062500 2.687500 -18.799999 48 48 48 
11.125000 2.687500 -18.799999 46 46 46 
11.187500 2.687500 -18.799999 49 49 49 
11.250000 2.687500 -18.799999 40 40 40 
11.312500 2.687500 -18.799999 33 33 33 
11.375000 2.687500 -18.799999 34 34 34 
11.437500 2.687500 -18.799999 40 40 40 
11.500000 2.687500 -18.799999 39 39 39 
11.562500 2.687500 -18.799999 38 38 38 
11.625000 2.687500 -18.799999 39 39 39 
11.687500 2.687500 -18.799999 43 43 43 
-0.822177 0.454361 -3.254091 193 193 193 
-0.810263 0.453747 -3.249696 191 191 191 
-0.799460 0.453747 -3.249696 189 189 189 
-0.789189 0.454054 -3.251892 188 188 188 
-0.778378 0.454054 -3.251892 187 187 187 
-0.768606 0.454668 -3.256292 187 187 187 
-0.569017 0.405063 -2.901025 177 177 177 
-0.558700 0.404576 -2.897532 177 177 177 
-0.549067 0.404576 -2.897532 175 175 175 
-0.539110 0.404332 -2.895788 171 171 171 
-0.528846 0.403846 -2.892308 168 168 168 
-0.519231 0.403846 -2.892308 165 165 165 
-0.509004 0.403361 -2.888835 159 159 159 
-0.474886 0.383562 -2.747032 154 154 154 
-0.465753 0.383562 -2.747032 151 151 151 
-0.434389 0.380091 -2.722172 142 142 142 
-0.425339 0.380091 -2.722172 141 141 141 
-0.416290 0.380091 -2.722172 143 143 143 
-0.407240 0.380091 -2.722172 144 144 144 
-0.396396 0.378378 -2.709910 143 143 143 
-0.389140 0.380091 -2.722172 143 143 143 
-0.404089 0.404089 -2.894047 147 147 147 
-0.394468 0.404089 -2.894047 148 148 148 
-0.384615 0.403846 -2.892308 153 153 153 
